# .PCD v0.7 - Point Cloud Data file format
VERSION 0.7
FIELDS x y z
SIZE 4 4 4
TYPE F F F
COUNT 1 1 1
WIDTH 1467
HEIGHT 1
VIEWPOINT 0 0 0 1 0 0 0
POINTS 1467
DATA ascii
-0.033387166 -0.044130094 0.12899129
-0.032744363 -0.044948343 0.131383
-0.030909399 -0.044130094 0.12899129
-0.030220654 -0.044948343 0.131383
-0.029232701 -0.045373473 0.13262565
-0.028109407 -0.045617703 0.13333954
-0.027013313 -0.045931503 0.13425677
-0.025906762 -0.046258092 0.13521138
-0.024752362 -0.0465292 0.13600382
-0.023522295 -0.046680354 0.13644564
-0.022181258 -0.04661613 0.13625792
-0.020839496 -0.046542235 0.13604192
-0.019555114 -0.046595179 0.13619667
-0.018256024 -0.046618156 0.13626383
-0.016894171 -0.046472028 0.13583671
-0.015596835 -0.046493769 0.13590026
-0.014273874 -0.046436116 0.13573174
-0.012971681 -0.046441231 0.13574669
-0.011632521 -0.046300352 0.13533489
-0.010256014 -0.045956671 0.13433033
-0.0088792155 -0.045512598 0.13303232
-0.0075698611 -0.045323044 0.13247825
-0.0062874458 -0.04525077 0.132267
-0.005027961 -0.045348715 0.13255329
-0.0037481035 -0.045267034 0.13231455
-0.0024659426 -0.045059465 0.13170782
-0.0011988917 -0.044981536 0.13148004
6.4005333e-05 -0.045059465 0.13170782
0.001326681 -0.044981536 0.13148004
0.002599169 -0.045150068 0.13197266
0.0038924678 -0.045451108 0.13285258
0.0052120644 -0.045834769 0.13397402
0.0065320977 -0.046069589 0.13466038
0.0078553976 -0.046246015 0.13517608
0.0091635631 -0.046295937 0.13532199
0.010489373 -0.046411518 0.13565984
0.011837415 -0.046589073 0.13617882
0.013230497 -0.046890914 0.1370611
0.014681758 -0.047325671 0.13833188
0.016196471 -0.047875822 0.13993996
0.017651569 -0.048178948 0.140826
0.019072859 -0.048353225 0.1413354
0.020480571 -0.048472203 0.14168318
0.022014135 -0.048855662 0.14280401
0.023530573 -0.04915835 0.14368877
0.024998274 -0.049331333 0.14419439
0.026463427 -0.049481392 0.14463301
0.027939606 -0.049636073 0.14508514
0.029416969 -0.049778055 0.14550015
0.030846551 -0.049829982 0.14565192
0.03226595 -0.049861655 0.14574452
0.03367532 -0.049875852 0.145786
0.035065528 -0.049861655 0.14574452
0.035344213 -0.048328694 0.14126371
0.036643781 -0.048253395 0.1410436
0.037997369 -0.048252061 0.1410397
0.039874982 -0.048893355 0.14291419
0.042045407 -0.049839068 0.14567849
0.044405468 -0.050941408 0.1489006
0.047988981 -0.053334698 0.15589614
0.049995884 -0.05388394 0.15750156
0.052050833 -0.054451186 0.15915962
0.053884987 -0.054761682 0.16006719
0.05551808 -0.054856282 0.16034371
0.056959681 -0.054761682 0.16006719
0.062896639 -0.058880351 0.17210597
0.065036982 -0.059324916 0.17340542
0.067182168 -0.059751593 0.17465258
0.069401823 -0.060222097 0.17602785
0.07161855 -0.060667738 0.17733045
0.072645798 -0.060108483 0.17569576
0.0739903 -0.059831161 0.17488515
0.075544938 -0.059732303 0.17459619
0.077349633 -0.059831161 0.17488515
0.075550579 -0.057197507 0.16718705
0.077483922 -0.057440367 0.16789693
0.081238367 -0.058995835 0.17244351
0.083590508 -0.059491117 0.17389122
0.08563903 -0.05975515 0.17466298
0.086930744 -0.059491117 0.17389122
0.088994086 -0.05975515 0.17466298
0.090920642 -0.05991926 0.17514268
0.10441816 -0.06756448 0.19748949
0.10852835 -0.068971142 0.20160112
0.1152371 -0.071950957 0.21031106
0.11240087 -0.068971142 0.20160112
0.11927693 -0.071950957 0.21031106
0.13352472 -0.079204299 0.23151241
nan nan nan
nan nan nan
0.13411477 -0.075769052 0.22147126
nan nan nan
nan nan nan
nan nan nan
nan nan nan
nan nan nan
nan nan nan
nan nan nan
nan nan nan
nan nan nan
nan nan nan
nan nan nan
nan nan nan
nan nan nan
nan nan nan
nan nan nan
nan nan nan
nan nan nan
nan nan nan
nan nan nan
-0.099945687 -0.042217437 0.12698378
-0.098184042 -0.04198565 0.1262866
-0.097506478 -0.042217437 0.12698378
-0.097620316 -0.042802088 0.12874232
-0.098197564 -0.043607533 0.13116498
-0.096622184 -0.043465551 0.13073792
-0.095678039 -0.043607533 0.13116498
-0.094110869 -0.043465551 0.13073792
-0.093289226 -0.043668721 0.13134901
-0.092468217 -0.043877751 0.13197775
-0.088758901 -0.042702995 0.12844425
-0.087107122 -0.04249898 0.12783061
-0.084311381 -0.041723032 0.12549667
-0.082259804 -0.04129817 0.12421875
-0.081900753 -0.041723032 0.12549667
-0.079873718 -0.04129817 0.12421875
-0.078970537 -0.041450314 0.12467638
-0.080066301 -0.042672511 0.12835257
-0.07835716 -0.042414643 0.12757695
-0.0776008 -0.042672511 0.12835257
-0.076048575 -0.042493995 0.12781562
-0.073927984 -0.041986823 0.12629013
-0.073010191 -0.042157248 0.12680273
-0.071502104 -0.041986823 0.12629013
-0.066898741 -0.039961573 0.12019847
-0.066248521 -0.040268049 0.12112031
-0.066712677 -0.04127495 0.12414891
-0.066001199 -0.041577887 0.12506011
-0.064788833 -0.041570682 0.12503843
-0.063598946 -0.041577887 0.12506011
-0.062387001 -0.041570682 0.12503843
-0.060947772 -0.04140877 0.12455143
-0.060514327 -0.041937403 0.12614147
-0.059486449 -0.042067263 0.12653208
-0.058353126 -0.042126413 0.12671
-0.05705592 -0.042067263 0.12653208
-0.055919178 -0.042126413 0.12671
-0.054657482 -0.042091973 0.1266064
-0.053655025 -0.042260151 0.12711225
-0.053680457 -0.043264598 0.13013348
-0.053148694 -0.043857154 0.13191579
-0.052145556 -0.044080172 0.13258661
-0.046555653 -0.040339984 0.12133668
-0.045482777 -0.040422183 0.12158392
-0.044224922 -0.040339984 0.12133668
-0.043147296 -0.040422183 0.12158392
-0.042349644 -0.040778544 0.12265579
-0.041359935 -0.040965069 0.12321685
-0.040338386 -0.041130118 0.12371328
-0.039467525 -0.041463498 0.12471604
-0.038320713 -0.041518763 0.12488227
-0.03710632 -0.041502021 0.12483191
-0.035892341 -0.041484632 0.1247796
-0.035814192 -0.042824186 0.1288088
-0.035004701 -0.043353833 0.13040188
-0.03422375 -0.043959435 0.13222344
-0.032499842 -0.043353833 0.13040188
-0.031683899 -0.043959435 0.13222344
-0.030934591 -0.044711921 0.13448681
-0.029906284 -0.045109157 0.13568163
-0.028789511 -0.045403071 0.13656569
-0.027588842 -0.045586415 0.13711716
-0.026360301 -0.045739785 0.13757847
-0.025080968 -0.045816548 0.13780937
-0.023814959 -0.045927569 0.1381433
-0.022431992 -0.045812827 0.13779818
-0.021019116 -0.045618776 0.1372145
-0.019654432 -0.045510367 0.13688841
-0.018256547 -0.045304015 0.13626774
-0.016866567 -0.045086917 0.13561475
-0.015540278 -0.045017999 0.13540745
-0.014224384 -0.044969358 0.13526113
-0.012984587 -0.045175686 0.13588175
-0.011676766 -0.045165014 0.13584965
-0.010307712 -0.044885024 0.13500749
-0.0089316843 -0.044489708 0.13381842
-0.0075913975 -0.044169452 0.13285515
-0.0062753195 -0.043889105 0.13201191
-0.0049956525 -0.043785922 0.13170154
-0.0037122336 -0.043568734 0.13104828
-0.0024356535 -0.043250162 0.13009006
-0.0011790232 -0.042987864 0.1293011
6.3219159e-05 -0.043250162 0.13009006
0.0013046947 -0.042987864 0.1293011
0.0025417262 -0.042906374 0.12905599
0.0037841925 -0.042939976 0.12915707
0.0050441073 -0.043106101 0.12965675
0.00630261 -0.043196768 0.12992945
0.0075569493 -0.043233637 0.13004036
0.0087908879 -0.043159895 0.12981854
0.010040255 -0.043170813 0.12985139
0.011313697 -0.043271389 0.13015391
0.013843996 -0.047680758 0.14341663
0.01531673 -0.047979292 0.14431459
0.016824482 -0.048328873 0.14536607
0.018295379 -0.048527125 0.14596239
0.019737214 -0.048625559 0.14625846
0.021181833 -0.04871732 0.14653446
0.022709999 -0.048977826 0.14731802
0.024229873 -0.049190935 0.14795902
0.025724111 -0.049331278 0.14838116
0.027242731 -0.049501192 0.14889222
0.028776832 -0.049680874 0.14943269
0.030314386 -0.049849171 0.1499389
0.031783361 -0.049894542 0.15007536
0.033258419 -0.049945116 0.15022749
0.034725841 -0.049980488 0.15033388
0.036236167 -0.05007232 0.1506101
0.037613574 -0.049980488 0.15033388
0.039129205 -0.05007232 0.1506101
0.040683679 -0.050205547 0.15101083
0.041295808 -0.049206723 0.14800651
0.043488301 -0.050094835 0.15067782
0.045957077 -0.051233735 0.15410346
0.048730154 -0.052630227 0.1583039
0.051886391 -0.054343518 0.16345723
0.053995039 -0.054891199 0.16510457
0.055829976 -0.055137314 0.16584484
0.057559267 -0.055268336 0.16623893
0.059514239 -0.055603132 0.16724595
0.060752515 -0.055268336 0.16623893
0.062726833 -0.055603132 0.16724595
0.069606557 -0.060160957 0.18095522
0.071837999 -0.060577083 0.18220685
0.074302681 -0.061165415 0.18397647
0.075681992 -0.060853697 0.18303888
0.077634916 -0.061006885 0.18349963
0.07981047 -0.061324339 0.1844545
0.081159711 -0.061006885 0.18349963
0.083353616 -0.061324339 0.1844545
0.085897759 -0.061880905 0.18612856
0.08365117 -0.059033874 0.17756513
0.087469183 -0.060494985 0.18195993
0.089669615 -0.060802031 0.18288347
0.091710381 -0.06099109 0.18345213
0.093182594 -0.060802031 0.18288347
0.095234275 -0.06099109 0.18345213
0.096729733 -0.060823519 0.18294811
0.10124543 -0.062527172 0.18807244
0.12533033 -0.076044813 0.22873148
0.12268437 -0.07315705 0.22004552
0.12972398 -0.076044813 0.22873148
0.1383827 -0.079769716 0.23993546
nan nan nan
nan nan nan
nan nan nan
nan nan nan
nan nan nan
nan nan nan
nan nan nan
nan nan nan
nan nan nan
nan nan nan
nan nan nan
nan nan nan
nan nan nan
nan nan nan
nan nan nan
nan nan nan
nan nan nan
nan nan nan
nan nan nan
nan nan nan
nan nan nan
nan nan nan
-0.10667071 -0.043749772 0.1355281
-0.10453447 -0.043403253 0.13445465
-0.10406738 -0.043749772 0.1355281
-0.10195176 -0.043403253 0.13445465
-0.1010132 -0.043555379 0.1349259
-0.098795176 -0.043152593 0.13367815
-0.09842144 -0.043555379 0.1349259
-0.096404709 -0.043232113 0.1339245
-0.092277288 -0.041940786 0.12992422
-0.090741225 -0.041807998 0.12951286
-0.089781597 -0.041940786 0.12992422
-0.08779528 -0.041590948 0.12884049
-0.086943679 -0.041776344 0.12941481
-0.085320398 -0.041590948 0.12884049
-0.084457777 -0.041776344 0.12941481
-0.085344218 -0.042845361 0.13272642
-0.08306437 -0.042333126 0.13113961
-0.081860907 -0.042362131 0.13122946
-0.080545336 -0.042333126 0.13113961
-0.079340138 -0.042362131 0.13122946
-0.077484936 -0.042039406 0.13022973
-0.076466292 -0.042167414 0.13062628
-0.070887774 -0.039743207 0.12311656
-0.069609955 -0.039688841 0.12294813
-0.068522856 -0.039743207 0.12311656
-0.069546334 -0.041045114 0.12714961
-0.069518097 -0.041761767 0.12936965
-0.068742357 -0.042047277 0.1302541
-0.06703306 -0.041761767 0.12936965
-0.066240333 -0.042047277 0.1302541
-0.064614125 -0.04180453 0.12950213
-0.064750843 -0.042715229 0.13232329
-0.062678941 -0.042176235 0.13065359
-0.061802551 -0.042436097 0.1314586
-0.060775269 -0.042601034 0.13196953
-0.059277393 -0.042436097 0.1314586
-0.058240294 -0.042601034 0.13196953
-0.057011764 -0.042630162 0.13205977
-0.055770684 -0.04265102 0.13212438
-0.055547532 -0.04346944 0.13465969
-0.050858952 -0.040749103 0.12623262
-0.049905881 -0.040961944 0.12689197
-0.048688874 -0.040963385 0.12689643
-0.047468439 -0.040961944 0.12689197
-0.046251342 -0.040963385 0.12689643
-0.045010552 -0.040943343 0.12683435
-0.043956749 -0.041097019 0.1273104
-0.042774282 -0.041135743 0.12743036
-0.041479997 -0.041066062 0.12721449
-0.040375948 -0.041186191 0.12758663
-0.039273471 -0.041315496 0.12798719
-0.039048307 -0.042405907 0.13136508
-0.038001113 -0.042646617 0.13211074
-0.036749028 -0.042666078 0.13217102
-0.035865016 -0.043129548 0.13360678
-0.034210183 -0.042666078 0.13217102
-0.033298593 -0.043129548 0.13360678
-0.032332446 -0.04355669 0.13492997
-0.031428903 -0.044107351 0.13663581
-0.030319301 -0.04440422 0.13755545
-0.029197099 -0.044708841 0.13849911
-0.027935605 -0.044819076 0.13884059
-0.026610518 -0.044833213 0.13888438
-0.02521693 -0.044727348 0.13855644
-0.023916624 -0.044784352 0.13873303
-0.022417452 -0.044453736 0.13770884
-0.021053901 -0.044367459 0.13744158
-0.019555114 -0.043965593 0.13619667
-0.018256024 -0.043987274 0.13626383
-0.016894171 -0.043849394 0.13583671
-0.015596835 -0.043869909 0.13590026
-0.014273874 -0.043815512 0.13573174
-0.012971681 -0.043820336 0.13574669
-0.011632521 -0.043687403 0.13533489
-0.010256014 -0.04336312 0.13433033
-0.0088792155 -0.042944111 0.13303232
-0.0075698611 -0.042765252 0.13247825
-0.0062874458 -0.042697057 0.132267
-0.005027961 -0.042789478 0.13255329
-0.0037481035 -0.042712409 0.13231455
-0.0024659426 -0.042516548 0.13170782
-0.0011988917 -0.042443018 0.13148004
6.4005333e-05 -0.042516548 0.13170782
0.001326681 -0.042443018 0.13148004
0.002599169 -0.04260204 0.13197266
0.0038924678 -0.04288609 0.13285258
0.0052120644 -0.043248102 0.13397402
0.0065320977 -0.043469664 0.13466038
0.0078553976 -0.043636139 0.13517608
0.0091635631 -0.043683238 0.13532199
0.010489373 -0.0437923 0.13565984
0.011837415 -0.04395983 0.13617882
0.013230497 -0.04424464 0.1370611
0.014681758 -0.044654861 0.13833188
0.016196471 -0.045173965 0.13993996
0.017651569 -0.045459986 0.140826
0.020340057 -0.048655707 0.15072571
0.021851553 -0.048798326 0.15116753
0.023353552 -0.048903298 0.1514927
0.024903383 -0.04909024 0.1520718
0.02640876 -0.04917369 0.15233032
0.02796313 -0.049334828 0.15282948
0.029552665 -0.049538828 0.15346144
0.031137468 -0.049715899 0.15400997
0.032675523 -0.049805652 0.15428801
0.03420328 -0.049872596 0.15449539
0.035733912 -0.049937993 0.15469798
0.037339672 -0.050098974 0.15519667
0.039034914 -0.050363041 0.1560147
0.040320814 -0.050098974 0.15519667
0.042031769 -0.050363041 0.1560147
0.044109181 -0.051032908 0.15808982
0.046528969 -0.052041132 0.16121309
0.047558855 -0.051479917 0.15947455
0.050520666 -0.052979685 0.16412053
0.053826589 -0.054738633 0.16956942
0.055972017 -0.055248771 0.17114972
0.057815291 -0.055440061 0.17174229
0.059590694 -0.05555746 0.17210597
0.061706077 -0.055976935 0.17340542
0.062896639 -0.05555746 0.17210597
0.065036982 -0.055976935 0.17340542
0.067182168 -0.056379531 0.17465258
0.069401823 -0.056823477 0.17602785
0.076547071 -0.061183289 0.18953367
0.079303823 -0.061914355 0.19179837
0.081754632 -0.062378798 0.19323711
0.08431334 -0.062903114 0.19486135
0.086978696 -0.063482501 0.19665617
0.088056393 -0.062903114 0.19486135
0.090756223 -0.063482501 0.19665617
0.093642063 -0.064165719 0.19877265
0.097400464 -0.065407589 0.20261972
0.09500815 -0.062551312 0.19377153
0.097037144 -0.062659755 0.19410747
0.098730259 -0.062551312 0.19377153
0.10076571 -0.062659755 0.19410747
0.10288714 -0.062816747 0.1945938
0.10852835 -0.065078773 0.20160112
0.1152371 -0.067890428 0.21031106
0.12254722 -0.070953391 0.21979952
0.14131372 -0.080433398 0.2491667
nan nan nan
nan nan nan
nan nan nan
nan nan nan
nan nan nan
nan nan nan
nan nan nan
nan nan nan
nan nan nan
nan nan nan
nan nan nan
nan nan nan
nan nan nan
nan nan nan
nan nan nan
nan nan nan
nan nan nan
nan nan nan
nan nan nan
nan nan nan
nan nan nan
nan nan nan
nan nan nan
-0.11268754 -0.044835374 0.14317267
-0.10902978 -0.043915939 0.14023663
-0.10993738 -0.044835374 0.14317267
-0.10515843 -0.043429613 0.13868365
-0.10438789 -0.043664448 0.13943355
-0.095372498 -0.040411837 0.12904699
-0.095678039 -0.041075096 0.13116498
-0.093880899 -0.040841319 0.13041845
-0.093289226 -0.04113273 0.13134901
-0.091375716 -0.040841319 0.13041845
-0.090766177 -0.04113273 0.13134901
-0.090116709 -0.041414008 0.13224722
-0.089620523 -0.041774776 0.13339926
-0.090572201 -0.042830691 0.13677111
-0.090038419 -0.043204892 0.13796604
-0.088246338 -0.042977452 0.13723975
-0.086460009 -0.042745966 0.13650055
-0.084540695 -0.042440582 0.13552538
-0.083838001 -0.042745966 0.13650055
-0.081937417 -0.042440582 0.13552538
-0.075547166 -0.039762322 0.1269729
-0.073927984 -0.039548509 0.12629013
-0.073108174 -0.039762322 0.1269729
-0.071502104 -0.039548509 0.12629013
-0.070574462 -0.039709032 0.12680273
-0.071689658 -0.041044783 0.13106818
-0.071729951 -0.041801874 0.13348579
-0.070863754 -0.042048629 0.13427375
-0.069165848 -0.041801874 0.13348579
-0.070007004 -0.043109313 0.13766083
-0.067980729 -0.042667378 0.1362496
-0.066011235 -0.042244431 0.13489901
-0.064721115 -0.042248022 0.13491048
-0.063902371 -0.042565748 0.13592507
-0.062836722 -0.042728826 0.13644584
-0.061291419 -0.042565748 0.13592507
-0.060215764 -0.042728826 0.13644584
-0.059025604 -0.04281611 0.13672455
-0.054311741 -0.040293172 0.12866805
-0.053680457 -0.040752076 0.13013348
-0.053148694 -0.041310221 0.13191579
-0.052145556 -0.04152029 0.13258661
-0.050797451 -0.041459337 0.13239196
-0.049598724 -0.04152029 0.13258661
-0.048254363 -0.041459337 0.13239196
-0.046783209 -0.04128319 0.13182949
-0.045464125 -0.041235175 0.13167615
-0.04412796 -0.041168474 0.13146316
-0.043966569 -0.042226113 0.13484052
-0.042626586 -0.042181663 0.13469857
-0.041456137 -0.042307444 0.13510023
-0.040216114 -0.042368054 0.13529378
-0.039120082 -0.042589474 0.13600083
-0.037813086 -0.042588584 0.135998
-0.036788132 -0.042916659 0.13704564
-0.03520073 -0.042588584 0.135998
-0.034155652 -0.042916659 0.13704564
-0.032982938 -0.043104231 0.1376446
-0.03187979 -0.043402169 0.13859601
-0.030570004 -0.043432496 0.13869286
-0.02928081 -0.043496173 0.1388962
-0.027911318 -0.043440957 0.13871987
-0.026522581 -0.043348752 0.13842542
-0.025137717 -0.043253478 0.13812119
-0.023814959 -0.043260399 0.1381433
-0.022384025 -0.043060046 0.1375035
-0.021019116 -0.04296954 0.1372145
-0.019654432 -0.042867426 0.13688841
-0.018256547 -0.042673055 0.13626774
-0.016866567 -0.04246857 0.13561475
-0.015540278 -0.042403653 0.13540745
-0.014224384 -0.042357832 0.13526113
-0.012939464 -0.042404309 0.13540955
-0.011631553 -0.042377409 0.13532364
-0.010308764 -0.042282712 0.13502125
-0.008964506 -0.042060032 0.13431017
-0.0076829954 -0.042106386 0.13445818
-0.0064052534 -0.042196292 0.13474528
-0.0051345471 -0.04238981 0.13536325
-0.0038347454 -0.042392913 0.13537316
-0.0025354081 -0.042406965 0.13541803
-0.001238165 -0.042522531 0.13578705
6.5808366e-05 -0.042406965 0.13541803
0.0013701402 -0.042522531 0.13578705
0.0026957421 -0.042863581 0.13687614
0.0040457812 -0.043242227 0.13808528
0.0054256744 -0.043674231 0.13946478
0.0068069692 -0.043944206 0.1403269
0.0082016205 -0.044196922 0.1411339
0.009593932 -0.044367131 0.14167742
0.011002341 -0.044560254 0.14229412
0.012410597 -0.044710144 0.14277276
0.013843996 -0.044911776 0.14341663
0.01531673 -0.045192976 0.14431459
0.016824482 -0.045522258 0.14536607
0.018295379 -0.045708995 0.14596239
0.019737214 -0.045801714 0.14625846
0.021181833 -0.045888141 0.14653446
0.022634035 -0.045979202 0.14682524
0.0241249 -0.046133522 0.14731802
0.027108343 -0.048966836 0.15636565
0.028725874 -0.049164917 0.15699817
0.030397706 -0.04943154 0.15784958
0.032077912 -0.049685806 0.15866153
0.033734024 -0.049881376 0.15928604
0.035359655 -0.050016865 0.15971871
0.03696014 -0.050107002 0.16000652
0.038571935 -0.050204664 0.16031839
0.040334918 -0.05048405 0.16121055
0.041651465 -0.050204664 0.16031839
0.043431576 -0.05048405 0.16121055
0.045555457 -0.051130027 0.16327335
0.048069715 -0.052156579 0.16655144
0.051003274 -0.05355731 0.17102438
0.054161537 -0.05509923 0.1759482
0.054953989 -0.054213893 0.17312105
0.057848122 -0.05539304 0.17688642
0.059825595 -0.055652194 0.17771398
0.061749175 -0.055848226 0.17833996
0.063972376 -0.056297351 0.17977415
0.066130623 -0.056667209 0.18095522
0.067425624 -0.056297351 0.17977415
0.069606557 -0.056667209 0.18095522
0.071837999 -0.057059169 0.18220685
0.073973909 -0.057358406 0.18316242
0.075681992 -0.057319719 0.18303888
0.085520089 -0.063300475 0.20213722
0.0883132 -0.063916907 0.20410566
0.091009557 -0.064438052 0.20576982
0.092233829 -0.063916907 0.20410566
0.09496215 -0.064438052 0.20576982
0.097887106 -0.065068655 0.20778354
0.10217229 -0.066560186 0.21254642
0.10529207 -0.067248948 0.21474585
0.10944781 -0.068560198 0.21893306
0.10406309 -0.063958324 0.20423792
0.10625106 -0.064094894 0.20467402
0.11040883 -0.065393172 0.20881982
0.11845757 -0.068908572 0.22004552
0.12533033 -0.07162863 0.22873148
0.13377383 -0.07513722 0.23993546
0.12972398 -0.07162863 0.22873148
0.1383827 -0.07513722 0.23993546
nan nan nan
nan nan nan
nan nan nan
nan nan nan
nan nan nan
nan nan nan
nan nan nan
nan nan nan
nan nan nan
nan nan nan
nan nan nan
nan nan nan
nan nan nan
nan nan nan
nan nan nan
nan nan nan
nan nan nan
nan nan nan
nan nan nan
nan nan nan
nan nan nan
nan nan nan
-0.11836178 -0.045641273 0.15038194
-0.11994867 -0.046824574 0.15428077
-0.11547313 -0.045641273 0.15038194
-0.10136297 -0.040571634 0.13367815
-0.1010132 -0.040950328 0.1349259
-0.098795176 -0.040571634 0.13367815
-0.09842144 -0.040950328 0.1349259
-0.096404709 -0.0406464 0.1339245
-0.096004523 -0.041025046 0.13517208
-0.09383218 -0.0406464 0.1339245
-0.093408033 -0.041025046 0.13517208
-0.096777208 -0.043103877 0.14202157
-0.095883057 -0.043316156 0.14272098
-0.094049141 -0.043103877 0.14202157
-0.093141556 -0.043316156 0.14272098
-0.09167102 -0.043269053 0.1425658
-0.089653641 -0.042958498 0.14154255
-0.088932507 -0.043269053 0.1425658
-0.086934775 -0.042958498 0.14154255
-0.079340138 -0.039828449 0.13122946
-0.077484936 -0.039525025 0.13022973
-0.076466292 -0.039645381 0.13062628
-0.074983381 -0.039525025 0.13022973
-0.073957115 -0.039645381 0.13062628
-0.073476955 -0.040067684 0.1320177
-0.07430204 -0.041229073 0.13584433
-0.073983952 -0.041786321 0.13768038
-0.073716737 -0.0423931 0.13967964
-0.073002741 -0.042760678 0.14089076
-0.071033664 -0.0423931 0.13967964
-0.069064237 -0.042011164 0.13842121
-0.067702308 -0.041991021 0.13835484
-0.066715211 -0.042207204 0.13906714
-0.065843157 -0.042506494 0.14005326
-0.064043894 -0.042207204 0.13906714
-0.063152902 -0.042506494 0.14005326
-0.058240294 -0.040053058 0.13196953
-0.057011764 -0.04008045 0.13205977
-0.056389887 -0.040545277 0.13359131
-0.055547532 -0.04086953 0.13465969
-0.054947883 -0.041392077 0.1363814
-0.05364668 -0.041398764 0.13640343
-0.052328162 -0.041392077 0.1363814
-0.051026538 -0.041398764 0.13640343
-0.049532205 -0.041245323 0.13589787
-0.047904883 -0.040969852 0.13499023
-0.047670573 -0.041903544 0.13806662
-0.046287421 -0.041851912 0.13789649
-0.045267459 -0.042135295 0.1388302
-0.043878492 -0.042081978 0.13865454
-0.042666126 -0.042200007 0.13904342
-0.041339837 -0.042209335 0.13907416
-0.040116549 -0.04232797 0.13946505
-0.038775001 -0.042325709 0.1394576
-0.037437595 -0.04232797 0.13946505
-0.036096189 -0.042325709 0.1394576
-0.034866143 -0.042458884 0.13989639
-0.033439282 -0.042353455 0.13954902
-0.032169372 -0.042446308 0.13985497
-0.030695759 -0.042266767 0.13926339
-0.02933583 -0.042234536 0.13915719
-0.027935605 -0.042138442 0.13884059
-0.026610518 -0.042151738 0.13888438
-0.02521693 -0.042052206 0.13855644
-0.023808032 -0.041914627 0.13810313
-0.022417452 -0.041794956 0.13770884
-0.021053901 -0.041713841 0.13744158
-0.019698 -0.041638047 0.13719185
-0.018314375 -0.04148858 0.13669936
-0.016971504 -0.041415475 0.1364585
-0.015643045 -0.041368254 0.1363029
-0.014340062 -0.041385923 0.13636114
-0.013070815 -0.041514304 0.13678412
-0.011800187 -0.041666489 0.13728556
-0.010528648 -0.041853346 0.13790123
-0.0092091514 -0.041875906 0.13797556
-0.007932907 -0.042135786 0.13883182
-0.0066367602 -0.042373605 0.13961542
-0.0053290534 -0.042639367 0.14049107
-0.0039905305 -0.042755179 0.14087264
-0.0026497145 -0.042952627 0.14152321
-0.0012967585 -0.043161951 0.14221291
6.968392e-05 -0.043520115 0.14339301
0.0014349795 -0.043161951 0.14221291
0.0028240904 -0.043520115 0.14339301
0.0042302175 -0.043819733 0.14438021
0.0056572664 -0.044134628 0.14541775
0.0070783985 -0.044287816 0.14592247
0.0085193487 -0.044493861 0.14660138
0.0099610491 -0.044644825 0.14709878
0.011421438 -0.044831645 0.14771433
0.012881957 -0.044977628 0.14819533
0.014360785 -0.045152131 0.14877029
0.015850911 -0.045327365 0.14934766
0.017370168 -0.045549903 0.15008089
0.018862197 -0.045672406 0.15048452
0.020340057 -0.045745607 0.15072571
0.021851553 -0.045879699 0.15116753
0.023353552 -0.04597839 0.1514927
0.024859695 -0.046073183 0.15180503
0.02640876 -0.046232611 0.15233032
0.02796313 -0.046384107 0.15282948
0.029552665 -0.046575908 0.15346144
0.033064723 -0.049635507 0.16354242
0.034826644 -0.049909506 0.16444521
0.036565576 -0.050128214 0.16516581
0.038266543 -0.050278857 0.16566217
0.039893106 -0.050323609 0.16580962
0.041701924 -0.050586011 0.1666742
0.043922603 -0.051310141 0.16906011
0.044903535 -0.050586011 0.1666742
0.047170043 -0.051310141 0.16906011
0.049834095 -0.052404128 0.17266464
0.052941255 -0.053878598 0.17752284
0.056259125 -0.055468813 0.18276238
0.059171546 -0.056575142 0.18640758
0.06242891 -0.057936605 0.19089343
0.062039662 -0.05593273 0.18429093
0.063955896 -0.056060906 0.18471326
0.066130877 -0.056402851 0.18583992
0.068316251 -0.05673546 0.18693581
0.069700636 -0.056402851 0.18583992
0.071907066 -0.05673546 0.18693581
0.074166313 -0.057092521 0.18811229
0.076547071 -0.057523914 0.18953367
0.079105169 -0.058065444 0.19131793
0.081754632 -0.058647919 0.19323711
0.08431334 -0.059140876 0.19486135
0.094459146 -0.06481877 0.21356925
0.095869221 -0.064388163 0.21215047
0.098561563 -0.06481877 0.21356925
0.10148821 -0.065382771 0.21542756
0.1048078 -0.066172317 0.21802902
0.11037918 -0.068324804 0.22512116
0.1195996 -0.072609931 0.2392401
0.12993567 -0.077398069 0.25501639
0.12419511 -0.072609931 0.2392401
0.1200742 -0.068925463 0.22710025
0.12635593 -0.071237296 0.23471743
0.13652752 -0.075622678 0.2491667
nan nan nan
0.14131372 -0.075622678 0.2491667
nan nan nan
nan nan nan
nan nan nan
nan nan nan
nan nan nan
nan nan nan
nan nan nan
nan nan nan
nan nan nan
nan nan nan
nan nan nan
nan nan nan
nan nan nan
nan nan nan
nan nan nan
nan nan nan
nan nan nan
nan nan nan
nan nan nan
nan nan nan
nan nan nan
nan nan nan
nan nan nan
-0.12350642 -0.046110258 0.15691835
-0.11360692 -0.042938311 0.14612386
-0.10993738 -0.042071108 0.14317267
-0.10515843 -0.040752012 0.13868365
-0.10438789 -0.040972371 0.13943355
-0.10249449 -0.040752012 0.13868365
-0.10170953 -0.040972371 0.13943355
-0.10079697 -0.041146517 0.14002618
-0.099074334 -0.040990222 0.1394943
-0.10383403 -0.043548353 0.14819992
-0.1022625 -0.043485351 0.1479855
-0.10120291 -0.043641336 0.14851633
-0.10022523 -0.043837607 0.14918427
-0.098350085 -0.043641336 0.14851633
-0.097359583 -0.043837607 0.14918427
-0.095410153 -0.043601528 0.14838086
-0.092776358 -0.04304079 0.14647262
-0.085610121 -0.040327724 0.13723975
-0.083838001 -0.040110514 0.13650055
-0.081409097 -0.039567176 0.13465153
-0.079894133 -0.039457683 0.13427889
-0.079740867 -0.040028129 0.13622019
-0.077314802 -0.039457683 0.13427889
-0.077124245 -0.040028129 0.13622019
-0.07754267 -0.040939786 0.13932265
-0.07921423 -0.042556688 0.14482516
-0.077224299 -0.042229149 0.14371051
-0.076432317 -0.042556688 0.14482516
-0.0744638 -0.042229149 0.14371051
-0.072329529 -0.041793458 0.14222781
-0.070962414 -0.041792814 0.14222561
-0.07000728 -0.042039528 0.14306521
-0.068973824 -0.042248156 0.14377519
-0.067936182 -0.042462692 0.14450528
-0.06212965 -0.039643273 0.13491048
-0.061291419 -0.039941408 0.13592507
-0.060215764 -0.040094435 0.13644584
-0.059025604 -0.040176336 0.13672455
-0.058133855 -0.040469695 0.13772289
-0.057090923 -0.040669024 0.13840123
-0.056257144 -0.041030392 0.139631
-0.05475466 -0.040909797 0.1392206
-0.053574998 -0.041030392 0.139631
-0.0520804 -0.040909797 0.1392206
-0.051883753 -0.041829269 0.14234966
-0.050247971 -0.041606855 0.14159277
-0.04887262 -0.041593716 0.14154807
-0.047810774 -0.041854274 0.14243476
-0.046459239 -0.041869115 0.14248526
-0.044828638 -0.041625723 0.14165698
-0.043399841 -0.041560348 0.14143451
-0.04186973 -0.041390598 0.14085682
-0.040516615 -0.041390318 0.14085588
-0.039293248 -0.041527152 0.14132152
-0.037810944 -0.041390318 0.14085588
-0.036578633 -0.041527152 0.14132152
-0.035290558 -0.041608781 0.14159931
-0.033728693 -0.041361202 0.14075679
-0.03187979 -0.040726259 0.13859601
-0.030570004 -0.040754717 0.13869286
-0.02928081 -0.04081447 0.1388962
-0.027911318 -0.040762659 0.13871987
-0.026522581 -0.040676132 0.13842542
-0.025137717 -0.040586732 0.13812119
-0.023894157 -0.040728226 0.1386027
-0.022580825 -0.040760472 0.13871244
-0.021286299 -0.040832836 0.13895869
-0.019981101 -0.040893037 0.13916357
-0.018646481 -0.04089734 0.13917822
-0.017348709 -0.040989365 0.13949139
-0.016000755 -0.04096831 0.13941973
-0.0147035 -0.041085076 0.1398171
-0.013440959 -0.041332062 0.14065762
-0.012192347 -0.04168186 0.14184803
-0.010940651 -0.042107794 0.14329752
-0.0096341716 -0.042415123 0.14434339
-0.0083195837 -0.042784065 0.14559895
-0.0069710906 -0.043092508 0.14664862
-0.0055945087 -0.043339547 0.14748932
-0.0041903532 -0.04346808 0.14792673
-0.0027826088 -0.043672148 0.1486212
-0.0013616049 -0.043878805 0.14932448
7.2936295e-05 -0.044102471 0.15008563
0.0015067378 -0.043878805 0.14932448
0.0029558996 -0.044102471 0.15008563
0.004408427 -0.04421325 0.15046263
0.0058654519 -0.044303305 0.15076908
0.0073077721 -0.044268619 0.15065105
0.0087696789 -0.044344436 0.15090907
0.010244434 -0.044454504 0.15128364
0.011760653 -0.044694807 0.15210141
0.013282292 -0.044900328 0.15280083
0.01480569 -0.045070309 0.15337929
0.016332576 -0.045219183 0.15388592
0.017884992 -0.045408167 0.15452905
0.019407606 -0.045498315 0.15483585
0.020937668 -0.045591854 0.15515417
0.022499748 -0.045738056 0.1556517
0.024021998 -0.04579011 0.15582885
0.025546975 -0.045840956 0.15600188
0.027059672 -0.045865353 0.15608491
0.028725874 -0.046133716 0.15699817
0.030397706 -0.046383899 0.15784958
0.032077912 -0.046622489 0.15866153
0.033734024 -0.046806 0.15928604
0.037811372 -0.050187323 0.17079306
0.039617386 -0.050398044 0.17151017
0.041278467 -0.050414938 0.17156766
0.043132059 -0.050656624 0.17239015
0.045504089 -0.051466823 0.17514734
0.046443462 -0.050656624 0.17239015
0.048868459 -0.051466823 0.17514734
0.051717646 -0.052654974 0.17919075
0.055051778 -0.054244433 0.18459986
0.058603395 -0.055942316 0.19037794
0.061695918 -0.057112459 0.19436008
0.064255141 -0.057734698 0.19647762
0.067107998 -0.058577742 0.1993466
0.069135182 -0.058673289 0.19967175
0.068554789 -0.05661042 0.19265157
0.070887178 -0.056998052 0.19397072
0.073137566 -0.057301581 0.19500367
0.074613124 -0.056998052 0.19397072
0.076883353 -0.057301581 0.19500367
0.07956101 -0.057887115 0.19699632
0.082406402 -0.058564648 0.19930203
0.085520089 -0.059397765 0.20213722
0.0883132 -0.059976187 0.20410566
0.091009557 -0.060465202 0.20576982
0.09389583 -0.061056927 0.20778354
0.10269709 -0.065390259 0.22253036
0.10557664 -0.06585326 0.224106
0.10872258 -0.066460602 0.22617285
0.11925741 -0.071472391 0.24322852
0.1369518 -0.080499992 0.27395046
0.15363835 -0.088606 0.30153611
0.14221407 -0.080499992 0.27395046
0.15943049 -0.088606 0.30153611
0.14508641 -0.079195455 0.26951098
0.16089605 -0.086285725 0.29363996
nan nan nan
nan nan nan
nan nan nan
nan nan nan
nan nan nan
nan nan nan
nan nan nan
nan nan nan
nan nan nan
nan nan nan
nan nan nan
nan nan nan
nan nan nan
nan nan nan
nan nan nan
nan nan nan
nan nan nan
nan nan nan
nan nan nan
nan nan nan
nan nan nan
nan nan nan
nan nan nan
nan nan nan
nan nan nan
-0.11836178 -0.042737808 0.15038194
-0.11994867 -0.043845836 0.15428077
-0.11547313 -0.042737808 0.15038194
-0.11074651 -0.041507609 0.14605322
-0.11002301 -0.041765463 0.14696053
-0.107941 -0.041507609 0.14605322
-0.10734331 -0.041821264 0.14715688
-0.11037143 -0.043574762 0.15332694
-0.10919921 -0.043694962 0.15374988
-0.10742621 -0.043574762 0.15332694
-0.10618973 -0.043671876 0.15366866
-0.10510507 -0.043835048 0.1542428
-0.10323794 -0.043671876 0.15366866
-0.10214225 -0.043835048 0.1542428
-0.10058757 -0.043803137 0.15413052
-0.09167102 -0.040516503 0.1425658
-0.089653641 -0.0402257 0.14154255
-0.088932507 -0.040516503 0.1425658
-0.086934775 -0.0402257 0.14154255
-0.084456936 -0.039699979 0.13969269
-0.08355134 -0.039908268 0.14042559
-0.084003925 -0.040782765 0.14350271
-0.080853932 -0.039908268 0.14042559
-0.085198306 -0.042765949 0.15048094
-0.084554441 -0.043175168 0.15192087
-0.081851915 -0.042529099 0.14964755
-0.079365604 -0.041974291 0.14769535
-0.078977361 -0.042529099 0.14964755
-0.076528549 -0.041974291 0.14769535
-0.074545354 -0.041658733 0.14658499
-0.074136078 -0.042227518 0.14858638
-0.073010273 -0.042402502 0.14920208
-0.066715211 -0.039522201 0.13906714
-0.065044679 -0.039319765 0.13835484
-0.064043894 -0.039522201 0.13906714
-0.063152902 -0.039802447 0.14005326
-0.061858319 -0.039834999 0.14016779
-0.060568899 -0.039872393 0.14029938
-0.059729986 -0.040214807 0.14150423
-0.058636837 -0.040398005 0.14214885
-0.057678994 -0.040685389 0.14316006
-0.056024771 -0.040483598 0.14245002
-0.056318372 -0.041714437 0.14678098
-0.054457765 -0.041371908 0.14557573
-0.05296997 -0.041302025 0.14532983
-0.051256638 -0.041047741 0.14443508
-0.049649797 -0.040866964 0.14379898
-0.048380166 -0.040961344 0.14413106
-0.046966922 -0.040936109 0.14404227
-0.045355387 -0.040731266 0.14332148
-0.043962136 -0.040715761 0.14326695
-0.042410124 -0.040547475 0.14267479
-0.041051112 -0.040558636 0.14271405
-0.03966951 -0.040547475 0.14267479
-0.038309745 -0.040558636 0.14271405
-0.03709894 -0.040734179 0.14333174
-0.034866143 -0.03975787 0.13989639
-0.033439282 -0.039659146 0.13954902
-0.032169372 -0.039746094 0.13985497
-0.030695759 -0.039577972 0.13926339
-0.02933583 -0.03954779 0.13915719
-0.028002499 -0.039552294 0.13917305
-0.026653314 -0.039533734 0.13910773
-0.025588255 -0.039956894 0.1405967
-0.024310546 -0.04007664 0.14101805
-0.023116522 -0.040356606 0.14200318
-0.021893792 -0.040618431 0.14292446
-0.02062271 -0.040819574 0.14363222
-0.01930806 -0.040957138 0.14411628
-0.018015817 -0.041167151 0.14485525
-0.016632622 -0.041187089 0.1449254
-0.015314986 -0.041387837 0.14563179
-0.014026393 -0.04171532 0.1467841
-0.012761798 -0.042195328 0.14847311
-0.011480181 -0.042732753 0.15036415
-0.010150168 -0.043218765 0.15207428
-0.0087525165 -0.043531757 0.15317561
-0.0073136189 -0.04372463 0.15385428
-0.0058499677 -0.04382972 0.15422405
-0.0043726391 -0.043868847 0.15436174
-0.0028952092 -0.043946587 0.15463528
-0.0014148424 -0.044096541 0.15516293
7.5628246e-05 -0.044227865 0.15562502
0.0015656499 -0.044096541 0.15516293
0.0030649966 -0.044227865 0.15562502
0.0045632254 -0.044262249 0.155746
0.0060643745 -0.044300985 0.1558823
0.0075463885 -0.044212274 0.15557016
0.0090363408 -0.044191714 0.1554978
0.010541581 -0.044241138 0.15567172
0.012103702 -0.044487357 0.1565381
0.013673632 -0.044704694 0.15730284
0.015243798 -0.044879477 0.15791786
0.016826024 -0.045054924 0.1585352
0.018432692 -0.045261264 0.15926124
0.020003825 -0.045355421 0.15959255
0.021564681 -0.045414522 0.15980051
0.023136778 -0.045487873 0.16005862
0.024659012 -0.045460161 0.1599611
0.026212221 -0.04548946 0.16006419
0.027779199 -0.045538072 0.16023526
0.0295396 -0.045882024 0.16144551
0.031282838 -0.046166334 0.16244592
0.033064723 -0.046477951 0.16354242
0.034826644 -0.046734519 0.16444521
0.036565576 -0.046939313 0.16516581
0.038266543 -0.047080379 0.16566217
0.039893106 -0.047122281 0.16580962
0.044677045 -0.050747346 0.17856516
0.047200538 -0.051631726 0.18167704
0.05013229 -0.052883718 0.18608244
0.050690334 -0.051631726 0.18167704
0.053706706 -0.052883718 0.18608244
0.057263661 -0.054570217 0.19201675
0.061066937 -0.05637889 0.19838095
0.064516179 -0.057761151 0.20324472
0.067274131 -0.058461495 0.20570901
0.07039389 -0.059427317 0.20910746
0.072627142 -0.059611909 0.209757
0.074950054 -0.059858147 0.21062344
0.077698454 -0.060422324 0.21260861
0.076192364 -0.057733823 0.20314856
0.077816747 -0.057492428 0.20229915
0.080094606 -0.057733823 0.20314856
0.082892984 -0.058330022 0.2052464
0.085786715 -0.058964066 0.20747742
0.088912696 -0.059725322 0.21015607
0.091794066 -0.060292125 0.21215047
0.094459146 -0.060695335 0.21356925
0.097350113 -0.061223455 0.21542756
0.098561563 -0.060695335 0.21356925
0.10934342 -0.065962158 0.23210168
0.11309841 -0.066864222 0.23527578
0.13520591 -0.07836847 0.27575591
0.16310078 -0.092720732 0.32625735
0.1898797 -0.10590948 0.37266469
0.16936781 -0.092720732 0.32625735
0.19703814 -0.10590948 0.37266469
0.22367871 -0.11808396 0.41550317
nan nan nan
nan nan nan
nan nan nan
nan nan nan
nan nan nan
nan nan nan
nan nan nan
nan nan nan
nan nan nan
nan nan nan
nan nan nan
nan nan nan
nan nan nan
nan nan nan
nan nan nan
nan nan nan
nan nan nan
nan nan nan
nan nan nan
nan nan nan
nan nan nan
nan nan nan
nan nan nan
nan nan nan
nan nan nan
nan nan nan
-0.12350642 -0.043080594 0.15691835
-0.12433677 -0.043906 0.15992483
-0.11872638 -0.042449236 0.15461868
-0.11690042 -0.042325798 0.15416905
-0.12075859 -0.044283625 0.16130032
-0.11920044 -0.044280298 0.16128819
-0.11701407 -0.044040442 0.16041453
-0.1147214 -0.043753643 0.15936989
-0.1139327 -0.044040442 0.16041453
-0.1116601 -0.043753643 0.15936989
-0.11084388 -0.044037476 0.16040374
-0.10978381 -0.044231076 0.1611089
-0.099419877 -0.040628158 0.1479855
-0.098350085 -0.040773891 0.14851633
-0.097224005 -0.04090023 0.14897652
-0.095410153 -0.040736701 0.14838086
-0.094362341 -0.04090023 0.14897652
-0.092559941 -0.040736701 0.14838086
-0.089962803 -0.040212806 0.14647262
-0.087382637 -0.039679978 0.14453183
-0.087187581 -0.040230501 0.14653707
-0.087677009 -0.041120101 0.14977738
-0.087667577 -0.041801516 0.15225939
-0.087959178 -0.042652026 0.15535732
-0.087444969 -0.043134402 0.15711434
-0.084729992 -0.042529073 0.15490946
-0.082375504 -0.042086285 0.15329663
-0.081754364 -0.042529073 0.15490946
-0.079430863 -0.042086285 0.15329663
-0.077838562 -0.042021517 0.15306072
-0.070962414 -0.039046828 0.14222561
-0.07000728 -0.039277334 0.14306521
-0.068973824 -0.039472256 0.14377519
-0.06725917 -0.039277334 0.14306521
-0.066212073 -0.039472256 0.14377519
-0.065160409 -0.039672691 0.14450528
-0.063562594 -0.039542094 0.14402959
-0.062344577 -0.039647218 0.14441249
-0.061454795 -0.039970603 0.14559041
-0.060311086 -0.040140051 0.14620762
-0.059137858 -0.040297467 0.14678098
-0.058921795 -0.041130722 0.14981607
-0.057355642 -0.041039661 0.14948438
-0.055336099 -0.040611185 0.14792368
-0.053643934 -0.040406719 0.14717893
-0.051918376 -0.040165357 0.14629978
-0.050135147 -0.039864708 0.14520468
-0.048962448 -0.040046196 0.14586575
-0.047596887 -0.040075999 0.14597429
-0.046101738 -0.039995179 0.14567992
-0.044755597 -0.040042624 0.14585274
-0.043236073 -0.039932996 0.14545342
-0.041923109 -0.040013202 0.14574556
-0.04044209 -0.039932996 0.14545342
-0.037810944 -0.038670782 0.14085588
-0.036578633 -0.038798615 0.14132152
-0.035290558 -0.038874883 0.14159931
-0.033728693 -0.038643576 0.14075679
-0.032412145 -0.03868575 0.14091042
-0.030973855 -0.038579963 0.14052509
-0.029672587 -0.038642984 0.14075463
-0.028486716 -0.038869474 0.14157961
-0.027240513 -0.039032225 0.14217243
-0.026290661 -0.039659195 0.14445612
-0.02507613 -0.039934523 0.14545898
-0.023933036 -0.040362805 0.14701898
-0.022773545 -0.040815413 0.14866756
-0.021529958 -0.041167762 0.14995098
-0.020213997 -0.041422326 0.15087822
-0.018896442 -0.04171269 0.15193586
-0.017455529 -0.041756567 0.15209566
-0.016061896 -0.041931883 0.15273423
-0.014719039 -0.042288318 0.15403254
-0.013397241 -0.042791668 0.15586597
-0.012027912 -0.043250758 0.15753816
-0.010619649 -0.043681812 0.15910825
-0.0091162054 -0.043800462 0.15954043
-0.0075828512 -0.043794312 0.15951803
-0.0060502389 -0.043790419 0.15950385
-0.0045191604 -0.043798752 0.15953419
-0.0029911113 -0.043860048 0.15975747
-0.0014622046 -0.044024657 0.16035704
7.8252233e-05 -0.044207919 0.16102457
0.0016180603 -0.044024657 0.16035704
0.0031713394 -0.044207919 0.16102457
0.0047248481 -0.044273186 0.16126229
0.0062805805 -0.044321921 0.16143979
0.0078056892 -0.044178031 0.1609157
0.0093295192 -0.044075664 0.16054283
0.010859272 -0.044026349 0.1603632
0.012471756 -0.044283032 0.16129816
0.014091747 -0.044506706 0.16211288
0.015727267 -0.044730041 0.16292635
0.017373048 -0.044939492 0.16368926
0.019039322 -0.045162793 0.16450262
0.020658482 -0.045248684 0.16481547
0.022275588 -0.045318164 0.16506855
0.023850502 -0.045298278 0.16499613
0.02540322 -0.045241341 0.16478874
0.026999727 -0.04526449 0.16487306
0.028665444 -0.045394681 0.16534728
0.030378092 -0.045581624 0.1660282
0.03231094 -0.046063844 0.16778465
0.034149274 -0.046371907 0.16890675
0.035963576 -0.046620876 0.1698136
0.037811372 -0.046889778 0.17079306
0.039617386 -0.047086656 0.17151017
0.041278467 -0.047102436 0.17156766
0.043132059 -0.047328241 0.17239015
0.045504089 -0.048085209 0.17514734
0.052001338 -0.052992001 0.19302003
0.052453876 -0.051613156 0.18799767
0.055709023 -0.052992001 0.19302003
0.059595145 -0.054862909 0.19983469
0.063757226 -0.056863185 0.20712057
0.067585528 -0.058453742 0.21291406
0.070537195 -0.059214946 0.21568671
0.073309869 -0.059786748 0.21776946
0.076213375 -0.06043056 0.22011451
0.078712687 -0.060727783 0.22119713
0.081574157 -0.061281458 0.22321384
0.083973646 -0.06146859 0.22389548
0.086572789 -0.061788883 0.2250621
0.084088251 -0.058553617 0.21327786
0.086842939 -0.059033737 0.21502666
0.089787431 -0.059617572 0.21715325
0.092802413 -0.06022064 0.21934989
0.095908418 -0.060854696 0.22165941
0.09842255 -0.061093811 0.22253036
0.10127183 -0.061526388 0.224106
0.10269709 -0.061093811 0.22253036
0.10557664 -0.061526388 0.224106
0.10872258 -0.062093824 0.22617285
0.13859206 -0.077602454 0.28266203
0.19709541 -0.10824022 0.3942582
0.2310223 -0.12448056 0.45341259
0.26055029 -0.13779357 0.50190443
0.2397318 -0.12448056 0.45341259
0.27019128 -0.13779357 0.50190443
0.29475015 -0.14768343 0.53792757
nan nan nan
nan nan nan
nan nan nan
nan nan nan
nan nan nan
nan nan nan
nan nan nan
nan nan nan
nan nan nan
nan nan nan
nan nan nan
nan nan nan
nan nan nan
nan nan nan
nan nan nan
nan nan nan
nan nan nan
nan nan nan
nan nan nan
nan nan nan
nan nan nan
nan nan nan
nan nan nan
nan nan nan
nan nan nan
nan nan nan
-0.12685475 -0.043220032 0.16316351
-0.12921792 -0.04457584 0.16828194
-0.12731293 -0.044474971 0.16790114
-0.12598543 -0.04457584 0.16828194
-0.12408775 -0.044474971 0.16790114
-0.12130737 -0.044050902 0.16630021
-0.11843135 -0.043580327 0.16452371
-0.11811294 -0.044050902 0.16630021
-0.11527105 -0.043580327 0.16452371
-0.10618973 -0.040704958 0.15366866
-0.10510507 -0.040857043 0.1542428
-0.10323794 -0.040704958 0.15366866
-0.10214225 -0.040857043 0.1542428
-0.10058757 -0.0408273 0.15413052
-0.098521926 -0.040586181 0.15322025
-0.09762691 -0.0408273 0.15413052
-0.095578752 -0.040586181 0.15322025
-0.092118561 -0.039728545 0.14998251
-0.094024785 -0.041194834 0.15551803
-0.094025418 -0.041860085 0.15802948
-0.091037475 -0.041194834 0.15551803
-0.090989858 -0.041860085 0.15802948
-0.090479374 -0.042331357 0.15980861
-0.090276614 -0.042965345 0.16220203
-0.08794345 -0.042589869 0.16078454
-0.087160915 -0.042965345 0.16220203
-0.084854968 -0.042589869 0.16078454
-0.076528549 -0.039122701 0.14769535
-0.074873433 -0.038999468 0.14723012
-0.074136078 -0.039358728 0.14858638
-0.073010273 -0.039521817 0.14920208
-0.071674347 -0.039575413 0.14940442
-0.070144281 -0.039521817 0.14920208
-0.068804473 -0.039575413 0.14940442
-0.067477718 -0.039638966 0.14964433
-0.065610021 -0.039380595 0.14866894
-0.064310633 -0.03945943 0.14896657
-0.063142017 -0.039623927 0.14958756
-0.062751494 -0.040295724 0.15212372
-0.061089791 -0.040163804 0.15162571
-0.059829384 -0.040295724 0.15212372
-0.058177244 -0.040163804 0.15162571
-0.056190576 -0.039788239 0.15020786
-0.054493334 -0.039603215 0.14950937
-0.052744932 -0.039369989 0.14862891
-0.051091727 -0.039196827 0.14797518
-0.049796753 -0.039296445 0.14835125
-0.048438564 -0.039350577 0.14855562
-0.047103401 -0.039427273 0.14884515
-0.045831513 -0.039563388 0.14935902
-0.044491369 -0.039647471 0.14967646
-0.041210152 -0.037949674 0.14326695
-0.03966951 -0.037792817 0.14267479
-0.038309745 -0.037803218 0.14271405
-0.03709894 -0.037966833 0.14333174
-0.035801981 -0.038051493 0.14365134
-0.034222096 -0.037830185 0.14281586
-0.032936905 -0.037929762 0.14319178
-0.031610355 -0.037988313 0.14341283
-0.030430669 -0.038236734 0.14435066
-0.029400613 -0.038705863 0.1461217
-0.028568242 -0.039495315 0.14910205
-0.027461154 -0.039968263 0.1508875
-0.026256731 -0.040344343 0.15230727
-0.025058886 -0.040775511 0.153935
-0.023872407 -0.041280389 0.15584102
-0.022561107 -0.041622542 0.1571327
-0.02117892 -0.041873597 0.15808047
-0.019779837 -0.04212743 0.15903875
-0.018267661 -0.042162735 0.15917203
-0.016775474 -0.042254835 0.15951972
-0.015342905 -0.042530708 0.1605612
-0.013928587 -0.042924482 0.16204776
-0.012459767 -0.043228235 0.16319448
-0.010979528 -0.043574084 0.16450012
-0.0094165411 -0.043652598 0.16479653
-0.0078315297 -0.043640114 0.16474941
-0.0062507177 -0.043650635 0.16478913
-0.0046653701 -0.043625873 0.16469565
-0.0031859153 -0.045073871 0.1701621
-0.0015564851 -0.045215454 0.1706966
8.3467567e-05 -0.045496207 0.17175649
0.0017223902 -0.045215454 0.1706966
0.0032769055 -0.044073276 0.16638467
0.0048904056 -0.044213191 0.16691288
0.0065118154 -0.04433788 0.1673836
0.0080990763 -0.044226717 0.16696393
0.0096774464 -0.04411177 0.16652998
0.011255435 -0.044027936 0.1662135
0.012917912 -0.04425437 0.16706833
0.01458439 -0.044442967 0.16778031
0.016277183 -0.044666234 0.16862319
0.017982284 -0.044879813 0.1694295
0.019695561 -0.045076665 0.17017265
0.021367403 -0.045155771 0.1704713
0.023035288 -0.045215864 0.17069815
0.024639893 -0.045152005 0.17045708
0.026253941 -0.04511233 0.17030729
0.027908772 -0.045143273 0.17042412
0.02966691 -0.045328639 0.17112391
0.031477649 -0.04557069 0.17203769
0.033500005 -0.046079688 0.17395924
0.035424542 -0.046412162 0.17521439
0.037297681 -0.046650194 0.17611301
0.039222647 -0.046929587 0.17716776
0.041097365 -0.047128119 0.17791726
0.042808454 -0.047130648 0.17792682
0.044677045 -0.047299739 0.17856516
0.047200538 -0.048124041 0.18167704
0.05013229 -0.049290977 0.18608244
0.053575251 -0.050862905 0.19201675
0.057931039 -0.053167984 0.20071885
0.062259674 -0.055300474 0.2087694
0.066730157 -0.057421956 0.21677838
0.070793971 -0.059075713 0.22302161
0.073817074 -0.059789386 0.22571586
0.076533072 -0.060220689 0.2273441
0.079925835 -0.061145809 0.2308366
0.082816377 -0.061647143 0.23272924
0.085801825 -0.06219092 0.2347821
0.088300928 -0.062363368 0.2354331
0.090691879 -0.062452719 0.23577043
0.092823312 -0.062363368 0.2354331
0.095220737 -0.062452719 0.23577043
0.093755595 -0.060063414 0.22675037
0.096903458 -0.060670763 0.22904322
0.099702097 -0.061037358 0.23042718
0.10197557 -0.061073504 0.23056364
0.10488502 -0.061480913 0.23210168
0.10857905 -0.062321693 0.23527578
0.10934342 -0.061480913 0.23210168
0.11309841 -0.062321693 0.23527578
0.12168685 -0.065740772 0.24818343
0.16310078 -0.086421601 0.32625735
0.26486045 -0.13769521 0.51982456
0.28953865 -0.14773998 0.5577454
0.27484566 -0.13769521 0.51982456
0.30025226 -0.14773998 0.5577454
0.31690082 -0.15319873 0.57835323
nan nan nan
nan nan nan
nan nan nan
nan nan nan
nan nan nan
nan nan nan
nan nan nan
nan nan nan
nan nan nan
nan nan nan
nan nan nan
nan nan nan
nan nan nan
nan nan nan
nan nan nan
nan nan nan
nan nan nan
nan nan nan
nan nan nan
nan nan nan
nan nan nan
nan nan nan
nan nan nan
nan nan nan
nan nan nan
nan nan nan
nan nan nan
nan nan nan
-0.13267842 -0.044660162 0.17497718
nan nan nan
-0.12931733 -0.044660162 0.17497718
-0.12514938 -0.043789826 0.17156723
-0.1221004 -0.043293007 0.16962071
-0.1139327 -0.040943276 0.16041453
-0.11116172 -0.040495094 0.15865856
-0.11084388 -0.040940523 0.16040374
-0.10978381 -0.041120503 0.1611089
-0.10776272 -0.040940523 0.16040374
-0.1066891 -0.041120503 0.1611089
-0.1047217 -0.040956225 0.16046526
-0.1025141 -0.040691692 0.15942883
-0.10163935 -0.040956225 0.16046526
-0.10297354 -0.042132705 0.16507468
-0.10018203 -0.041631512 0.16311103
-0.098603614 -0.04162652 0.16309145
-0.098243788 -0.042144109 0.16511935
-0.095470831 -0.04162652 0.16309145
-0.095072053 -0.042144109 0.16511935
-0.094861433 -0.042764079 0.16754837
-0.093144745 -0.042714793 0.16735527
-0.09091036 -0.04242219 0.16620886
-0.084426992 -0.040100958 0.15711434
-0.081754364 -0.039538197 0.15490946
-0.079430863 -0.039126545 0.15329663
-0.078153431 -0.03922436 0.15367986
-0.077283442 -0.039534368 0.15489446
-0.075625911 -0.039445769 0.15454733
-0.074308105 -0.039534368 0.15489446
-0.07265725 -0.039445769 0.15454733
-0.070885286 -0.03928636 0.15392278
-0.06935849 -0.039258927 0.1538153
-0.067047484 -0.038776755 0.15192617
