# .PCD v0.7 - Point Cloud Data file format
VERSION 0.7
FIELDS x y z
SIZE 4 4 4
TYPE F F F
COUNT 1 1 1
WIDTH 1325
HEIGHT 1
VIEWPOINT 0 0 0 1 0 0 0
POINTS 1325
DATA ascii
0.012127677 -0.050259437 0.12563646
0.01330637 -0.050154015 0.12537293
0.014471675 -0.050019823 0.12503748
0.015472759 -0.049382064 0.12344325
0.016560631 -0.049092371 0.12271907
0.017686551 -0.048946459 0.12235433
0.018892508 -0.049026433 0.12255425
0.020047996 -0.048973739 0.12242252
0.021285221 -0.049115483 0.12277686
0.022507235 -0.049209099 0.12301087
0.023763712 -0.049364969 0.1234005
0.025077028 -0.049618486 0.12403424
0.026134087 -0.049364969 0.1234005
0.029331909 -0.053001728 0.13249153
0.030606531 -0.053005401 0.13250071
0.031785589 -0.052849881 0.13211195
0.033175416 -0.05304331 0.13259546
0.034585208 -0.053253163 0.13312005
0.036123279 -0.05363854 0.13408341
0.037701514 -0.054054968 0.13512437
0.039133467 -0.054240927 0.13558923
0.04072703 -0.054631691 0.13656604
0.042390864 -0.055089399 0.1377102
0.044060513 -0.055526733 0.13880342
0.043466799 -0.053169779 0.13291161
0.044980183 -0.053451229 0.13361517
0.04636088 -0.053563766 0.13389648
0.047491826 -0.053389467 0.13346078
0.048908163 -0.053536724 0.13382888
0.050671522 -0.054046575 0.13510339
0.052430391 -0.054526292 0.13630258
0.054340914 -0.055136524 0.13782799
0.056106512 -0.055574168 0.13892201
0.06185979 -0.059849586 0.14960952
0.06423112 -0.060733121 0.15181814
0.066625111 -0.061598379 0.15398107
0.068279155 -0.061756797 0.15437709
0.070101745 -0.062057681 0.15512922
0.071729094 -0.062176812 0.15542702
0.073679589 -0.062565476 0.15639859
0.074714661 -0.062176812 0.15542702
0.073836796 -0.060242627 0.15059203
0.07606937 -0.06087178 0.15216476
0.078709565 -0.061797246 0.15447819
0.080730043 -0.062210917 0.15551227
0.082276858 -0.062251177 0.15561292
0.083717249 -0.062210917 0.15551227
0.091057956 -0.06647978 0.1661834
0.093407601 -0.067020461 0.16753498
0.095416017 -0.067302138 0.1682391
0.09765283 -0.067732863 0.1693158
0.098647684 -0.067302138 0.1682391
0.10090519 -0.067732863 0.1693158
0.104101 -0.068769775 0.17190784
0.10122558 -0.065826237 0.16454969
0.10163933 -0.065079235 0.16268237
0.10438638 -0.065826237 0.16454969
0.10839519 -0.067334756 0.16832063
0.11034277 -0.067537323 0.168827
0.11162843 -0.067334756 0.16832063
0.12690341 -0.075455934 0.18862161
0.1293065 -0.075802676 0.18948838
0.13224809 -0.076451093 0.19110928
0.13294634 -0.075802676 0.18948838
0.13591906 -0.076451093 0.19110928
0.13811557 -0.076651454 0.19161013
0.13415007 -0.073471718 0.18366155
0.13580428 -0.073412396 0.18351325
0.137678 -0.073471718 0.18366155
0.13857564 -0.073015258 0.18252052
0.14131051 -0.073526144 0.18379761
0.14208165 -0.073015258 0.18252052
0.15864664 -0.080534332 0.20131637
-0.094050229 -0.046648446 0.11949344
-0.09403459 -0.047216855 0.12094946
-0.091282204 -0.046408121 0.11887783
-0.090613805 -0.046651818 0.11950208
-0.091456354 -0.047689654 0.12216057
-0.088318311 -0.046651818 0.11950208
-0.085102335 -0.045544945 0.11666674
-0.08465568 -0.045910396 0.11760286
-0.082861304 -0.045544945 0.11666674
-0.079186387 -0.04412166 0.1130209
-0.07794036 -0.044030979 0.1127886
-0.077015392 -0.04412166 0.1130209
-0.075773828 -0.044030979 0.1127886
-0.073994167 -0.043620441 0.11173698
-0.071204916 -0.042593904 0.10910742
-0.071438968 -0.043372206 0.11110111
-0.070836417 -0.043658499 0.11183447
-0.069304846 -0.043372206 0.11110111
-0.068753459 -0.043699972 0.1119407
-0.0680326 -0.043928716 0.11252666
-0.066603214 -0.043699972 0.1119407
-0.065871097 -0.043928716 0.11252666
-0.061492901 -0.041693009 0.10679972
-0.061061043 -0.042102501 0.10784867
-0.060329426 -0.042315878 0.10839524
-0.058989402 -0.042102501 0.10784867
-0.058247287 -0.042315878 0.10839524
-0.057631638 -0.042630568 0.10920134
-0.057690382 -0.043465022 0.11133886
-0.057808917 -0.044376891 0.11367468
-0.056241713 -0.044004906 0.11272181
-0.055625364 -0.044376891 0.11367468
-0.054076463 -0.044004906 0.11272181
-0.052855939 -0.043890394 0.11242849
-0.052082043 -0.044149712 0.11309275
-0.051502012 -0.044587921 0.11421525
-0.048155107 -0.04259764 0.109117
-0.046767116 -0.0422902 0.10832947
-0.046059098 -0.04259764 0.109117
-0.044686235 -0.0422902 0.10832947
-0.043471541 -0.042121354 0.10789696
-0.04237001 -0.042056594 0.10773107
-0.041947462 -0.042679418 0.10932647
-0.041372597 -0.043175273 0.11059666
-0.040467348 -0.043343391 0.11102729
-0.039941497 -0.04393797 0.11255036
-0.038875826 -0.043955278 0.11259469
-0.037779536 -0.04393797 0.11255036
-0.036713015 -0.043955278 0.11259469
-0.035799835 -0.044162795 0.11312626
-0.034933206 -0.044442531 0.11384283
-0.03412021 -0.044810779 0.11478613
-0.033283718 -0.045171741 0.11571074
-0.032147281 -0.045136485 0.11562043
-0.031103937 -0.045234099 0.11587048
-0.029002659 -0.043743324 0.11205176
-0.028143268 -0.04408291 0.11292163
-0.027234664 -0.044369545 0.11365587
-0.026330151 -0.044687059 0.1144692
-0.025051471 -0.044369545 0.11365587
-0.024131337 -0.044687059 0.1144692
-0.023108844 -0.04483629 0.11485147
-0.022136383 -0.045102425 0.11553319
-0.021131437 -0.045326967 0.11610837
-0.020150734 -0.04563142 0.11688825
-0.019125659 -0.045865394 0.11748759
-0.018104605 -0.046138957 0.11818834
-0.017026281 -0.046293397 0.11858395
-0.015965229 -0.046520315 0.11916522
-0.015032332 -0.047184538 0.12086669
-0.013973566 -0.047531791 0.12175619
-0.012916476 -0.047948685 0.1228241
-0.011817052 -0.048276443 0.12366368
-0.010672571 -0.048472803 0.12416666
-0.0095280996 -0.048718613 0.12479633
-0.0085454024 -0.049981371 0.12803097
-0.0073562847 -0.050258365 0.1287405
-0.0061391331 -0.050417051 0.12914699
-0.0049495082 -0.0509394 0.13048503
-0.0037336519 -0.051454451 0.13180438
-0.0024908993 -0.051937126 0.13304079
-0.001214078 -0.051978011 0.13314551
6.4653112e-05 -0.051937126 0.13304079
0.0013434861 -0.051978011 0.13314551
0.0026245113 -0.052022472 0.1332594
0.0038890867 -0.051818602 0.13273717
0.0051617781 -0.051796839 0.13268143
0.0064424169 -0.051847655 0.13281159
0.0077332109 -0.051949892 0.13307348
0.0087443478 -0.050410911 0.12913127
0.0099736154 -0.05035558 0.12898953
0.011210009 -0.050344467 0.12896107
0.012413248 -0.050201491 0.12859483
0.013639172 -0.050167829 0.1285086
0.014842102 -0.050062198 0.12823802
0.015874729 -0.04944234 0.1266502
0.017037805 -0.049288087 0.12625507
0.018241152 -0.049263086 0.12619103
0.019558955 -0.049531054 0.12687744
0.020820538 -0.049633563 0.12714003
0.022163682 -0.049908374 0.12784398
0.023412647 -0.049953386 0.1279593
0.024679005 -0.050029185 0.12815344
0.025963683 -0.050133146 0.12841976
0.027263893 -0.050256308 0.12873524
0.028430471 -0.050133146 0.12841976
0.029736742 -0.050256308 0.12873524
0.030887485 -0.050117284 0.12837912
0.034134086 -0.053259086 0.13642707
0.035653494 -0.053573288 0.13723193
0.037204154 -0.053910386 0.13809542
0.038645212 -0.054070912 0.13850664
0.040130123 -0.054280076 0.13904242
0.041766144 -0.054673582 0.14005041
0.043629989 -0.05533145 0.1417356
0.045543965 -0.05601117 0.14347674
0.047262844 -0.056418069 0.14451905
0.048299979 -0.05601117 0.14347674
0.050038882 -0.056418069 0.14451905
0.049443394 -0.054242056 0.13894503
0.050865598 -0.054335758 0.13918506
0.05221479 -0.054348674 0.13921814
0.054548576 -0.055360183 0.1418092
0.056636654 -0.056079119 0.14365081
0.058732998 -0.056771852 0.14542529
0.060979895 -0.057574555 0.14748147
0.06152644 -0.056771852 0.14542529
0.068423964 -0.061734904 0.15813851
0.070200637 -0.061962493 0.15872149
0.072403602 -0.062548675 0.16022305
0.074250147 -0.062808961 0.16088979
0.076280795 -0.063211195 0.16192015
0.077340648 -0.062808961 0.16088979
0.079391085 -0.063211195 0.16192015
0.0816838 -0.063787162 0.16339552
0.081707895 -0.062603243 0.16036282
0.083692431 -0.062937401 0.16121879
0.085383981 -0.063043088 0.16148952
0.08678925 -0.062937401 0.16121879
0.088486001 -0.063043088 0.16148952
0.089918576 -0.062960163 0.1612771
0.099855043 -0.068733551 0.17606607
0.10275985 -0.069555141 0.17817062
0.10323706 -0.068733551 0.17606607
0.10618229 -0.069555141 0.17817062
0.11090333 -0.071495458 0.18314089
0.11461736 -0.072736144 0.18631901
0.11810064 -0.073794506 0.18903007
0.11059842 -0.068060525 0.17434205
0.1141098 -0.069174074 0.17719451
0.11681554 -0.069773704 0.17873049
0.1189 -0.06999024 0.17928517
0.12024873 -0.069773704 0.17873049
0.12234385 -0.06999024 0.17928517
0.13854933 -0.078160971 0.20021509
0.14093043 -0.078415893 0.2008681
0.14239521 -0.078160971 0.20021509
0.14379689 -0.077878654 0.19949192
0.14385006 -0.076883033 0.19694157
0.14762889 -0.077878654 0.19949192
0.14265233 -0.07428921 0.19029729
0.14279243 -0.073421478 0.18807454
0.14599666 -0.074131265 0.18989271
0.14640512 -0.073421478 0.18807454
0.15060148 -0.07460545 0.19110738
-0.09455394 -0.045738563 0.12013341
-0.095865354 -0.046945788 0.12330423
-0.0954457 -0.047324911 0.1243
-0.094585255 -0.047492299 0.12473966
-0.09305805 -0.047324911 0.1243
-0.089492127 -0.046102893 0.12109035
-0.088054091 -0.045959346 0.12071331
-0.082208306 -0.043480661 0.11420299
-0.080879427 -0.043356281 0.11387631
-0.080551952 -0.043772664 0.11496994
-0.079544954 -0.043826222 0.11511062
-0.078343518 -0.043772664 0.11496994
-0.077333815 -0.043826222 0.11511062
-0.076531053 -0.04400032 0.11556789
-0.075418487 -0.043998796 0.11556389
-0.074311137 -0.04400032 0.11556789
-0.073198646 -0.043998796 0.11556389
-0.071532197 -0.043659125 0.11467173
-0.070923321 -0.043964405 0.11547356
-0.070079297 -0.044131305 0.11591192
-0.064832419 -0.041486211 0.10896452
-0.064171351 -0.041736923 0.10962301
-0.063803501 -0.042189877 0.11081272
-0.062979423 -0.042351414 0.111237
-0.062118553 -0.042493355 0.1116098
-0.060842697 -0.042351414 0.111237
-0.059974663 -0.042493355 0.1116098
-0.060629845 -0.043739326 0.11488239
-0.060167968 -0.044210695 0.11612044
-0.059074104 -0.044226717 0.11616252
-0.057731528 -0.044053569 0.11570776
-0.056842763 -0.044226717 0.11616252
-0.055508923 -0.044053569 0.11570776
-0.054284722 -0.043962143 0.11546762
-0.050588485 -0.041823186 0.10984959
-0.050039165 -0.042250186 0.11097112
-0.049278542 -0.042513475 0.11166266
-0.04801286 -0.042343065 0.11121506
-0.047133636 -0.042513475 0.11166266
-0.045876551 -0.042343065 0.11121506
-0.044684809 -0.042226274 0.11090831
-0.043487381 -0.04209828 0.11057213
-0.043725125 -0.043387976 0.11395955
-0.042880069 -0.043641869 0.1146264
-0.041621123 -0.043476794 0.11419283
-0.040495306 -0.04344561 0.11411093
-0.039427619 -0.043476794 0.11419283
-0.038303375 -0.04344561 0.11411093
-0.037232127 -0.043474473 0.11418674
-0.03645578 -0.043859884 0.11519904
-0.035762694 -0.04437273 0.11654603
-0.035041675 -0.044882931 0.11788609
-0.034323648 -0.045431167 0.11932605
-0.031456217 -0.04307403 0.11313497
-0.030479511 -0.043229889 0.11354433
-0.029469863 -0.043348853 0.11385679
-0.028570643 -0.043645684 0.11463643
-0.02766262 -0.04395232 0.11544181
-0.026740171 -0.044260688 0.11625174
-0.025445122 -0.04395232 0.11544181
-0.024507115 -0.044260688 0.11625174
-0.023511669 -0.044489805 0.11685352
-0.022547098 -0.044803236 0.11767676
-0.021537947 -0.0450565 0.11834196
-0.020530028 -0.045340698 0.11908842
-0.019504497 -0.045617238 0.11981477
-0.018455865 -0.045871045 0.12048139
-0.017394703 -0.04612558 0.12114993
-0.016781721 -0.047690243 0.12525956
-0.015689729 -0.048030201 0.12615246
-0.014556763 -0.048291117 0.12683778
-0.013423764 -0.048599586 0.12764797
-0.012305115 -0.049027231 0.12877119
-0.011162917 -0.049446132 0.12987144
-0.0099924132 -0.049829274 0.13087778
-0.0087616229 -0.049978793 0.13127048
-0.0075352537 -0.050208032 0.13187259
-0.0062774564 -0.050278191 0.13205686
-0.0050540771 -0.050729331 0.1332418
-0.0038097675 -0.051205099 0.1344914
-0.0025437507 -0.051727537 0.1358636
-0.0012401359 -0.05178069 0.13600321
6.6024899e-05 -0.051727537 0.1358636
0.0013723213 -0.05178069 0.13600321
0.0026839557 -0.051885195 0.13627769
0.0039728996 -0.051626328 0.13559778
0.0052767703 -0.051641356 0.13563725
0.0065807495 -0.051651292 0.13566335
0.0079060653 -0.051797729 0.13604796
0.0091955187 -0.051700994 0.13579389
0.010489075 -0.051648498 0.135656
0.011755853 -0.051490311 0.13524053
0.01301468 -0.051332243 0.13482535
0.014261595 -0.051160049 0.13437308
0.015523935 -0.051067177 0.13412915
0.016385842 -0.049772218 0.13072792
0.017494123 -0.049356688 0.12963651
0.018738197 -0.049354035 0.12962955
0.020125784 -0.049706157 0.13055441
0.021487057 -0.049955804 0.1312101
0.022942781 -0.050385211 0.13233796
0.024245562 -0.05045129 0.13251151
0.025549339 -0.050512742 0.13267292
0.026786909 -0.050443679 0.13249153
0.028061353 -0.050447177 0.13250071
0.029331909 -0.050443679 0.13249153
0.030606531 -0.050447177 0.13250071
0.031785589 -0.050299168 0.13211195
0.033175416 -0.050483253 0.13259546
0.034585208 -0.050682977 0.13312005
0.036123279 -0.051049758 0.13408341
0.039667495 -0.054128792 0.14217056
0.041266032 -0.054436255 0.14297812
0.042930793 -0.05480846 0.14395572
0.044832747 -0.055450805 0.14564286
0.046976142 -0.056343865 0.1479885
0.048791874 -0.056803018 0.14919448
0.049818818 -0.056343865 0.1479885
0.051657721 -0.056803018 0.14919448
0.053143367 -0.05685943 0.14934264
0.054616548 -0.056899887 0.1494489
0.054202143 -0.055022128 0.14451693
0.056771129 -0.056191053 0.14758714
0.058985975 -0.056961037 0.14960952
0.061314881 -0.057801928 0.15181814
0.06366732 -0.058625426 0.15398107
0.06423112 -0.057801928 0.15181814
0.066625111 -0.058625426 0.15398107
0.068279155 -0.0587762 0.15437709
0.074045338 -0.062385149 0.16385607
0.076588161 -0.063184634 0.16595595
0.078881726 -0.063750081 0.1674411
0.08115869 -0.06427978 0.16883236
0.082098067 -0.063750081 0.1674411
0.084401749 -0.06427978 0.16883236
0.086530037 -0.064658441 0.16982694
0.08862441 -0.064998224 0.17071939
0.08786577 -0.063271232 0.1661834
0.089194834 -0.063082382 0.16568738
0.091057956 -0.063271232 0.1661834
0.093085282 -0.063565716 0.16695687
0.095416017 -0.064053901 0.1682391
0.09765283 -0.064463839 0.1693158
0.10888306 -0.070699938 0.18569507
0.11252288 -0.071885861 0.18880993
0.11591268 -0.072876982 0.19141313
0.12260377 -0.075880341 0.19930151
0.12592684 -0.076738916 0.20155658
0.12643211 -0.075880341 0.19930151
0.1297985 -0.076738916 0.20155658
0.12328023 -0.071814165 0.18862161
0.12499402 -0.071758017 0.18847413
0.12690341 -0.071814165 0.18862161
0.12861438 -0.071758017 0.18847413
0.13224809 -0.072761297 0.19110928
0.13476782 -0.073132612 0.19208454
0.14869967 -0.079603121 0.20907947
0.15132968 -0.079931624 0.2099423
0.14970566 -0.078034066 0.20495833
0.15034559 -0.077350527 0.20316301
0.15364267 -0.078034066 0.20495833
0.15442978 -0.077441633 0.2034023
0.15259151 -0.075563908 0.1984704
0.15214705 -0.074414223 0.19545072
0.15640387 -0.075563908 0.1984704
-0.095447443 -0.045000091 0.12126864
-0.097362936 -0.046470236 0.12523046
-0.096474484 -0.046622135 0.1256398
-0.094957411 -0.046470236 0.12523046
-0.094061092 -0.046622135 0.1256398
-0.086914688 -0.043639805 0.11760286
-0.085102335 -0.043292429 0.11666674
-0.08465568 -0.043639805 0.11760286
-0.082861304 -0.043292429 0.11666674
-0.08179801 -0.043322738 0.11674841
-0.080998816 -0.043495703 0.11721453
-0.082048841 -0.044680554 0.12040754
-0.080783106 -0.04462019 0.12024485
-0.079026394 -0.044282947 0.11933604
-0.078129075 -0.044424433 0.11971732
-0.076734088 -0.044282947 0.11933604
-0.075829446 -0.044424433 0.11971732
-0.074105896 -0.044083133 0.11879757
-0.068753459 -0.041538704 0.1119407
-0.0680326 -0.041756138 0.11252666
-0.066603214 -0.041538704 0.1119407
-0.065871097 -0.041756138 0.11252666
-0.065629095 -0.042296696 0.11398339
-0.064734265 -0.042427722 0.11433648
-0.063710943 -0.042477604 0.11447089
-0.064257272 -0.043594126 0.11747976
-0.0631565 -0.043613154 0.11753104
-0.062638178 -0.044042405 0.11868781
-0.061542496 -0.044074092 0.1187732
-0.06041358 -0.04408272 0.11879645
-0.059261005 -0.044074092 0.1187732
-0.058131639 -0.04408272 0.11879645
-0.054076463 -0.041828554 0.11272181
-0.052855939 -0.041719709 0.11242849
-0.052082043 -0.041966204 0.11309275
-0.051502012 -0.042382736 0.11421525
-0.050749391 -0.04267228 0.11499552
-0.049308073 -0.042382736 0.11421525
-0.048540466 -0.04267228 0.11499552
-0.04724152 -0.042497333 0.11452406
-0.047266141 -0.043533068 0.11731522
-0.045775734 -0.043189943 0.11639055
-0.044796307 -0.04332383 0.11675135
-0.043869138 -0.043516427 0.11727037
-0.042507969 -0.04327732 0.11662601
-0.041340597 -0.043227907 0.11649286
-0.040267725 -0.04327732 0.11662601
-0.039102912 -0.043227907 0.11649286
-0.038014431 -0.043262463 0.11658598
-0.037256036 -0.04368617 0.11772781
-0.034933206 -0.042244542 0.11384283
-0.03431759 -0.04284098 0.11545014
-0.033283718 -0.042937685 0.11571074
-0.032147281 -0.042904168 0.11562043
-0.031103937 -0.042996958 0.11587048
-0.030016372 -0.043033227 0.11596823
-0.029021369 -0.043210115 0.11644492
-0.028100483 -0.043515958 0.11726911
-0.026784604 -0.043210115 0.11644492
-0.025847888 -0.043515958 0.11726911
-0.024892945 -0.043817587 0.11808196
-0.02391861 -0.044112254 0.11887603
-0.022939496 -0.04442719 0.11972475
-0.021937534 -0.044728793 0.12053753
-0.021267837 -0.045779198 0.12336822
-0.020201191 -0.046048712 0.12409451
-0.019142546 -0.046371397 0.1249641
-0.018132908 -0.046863906 0.12629135
-0.017188812 -0.047608573 0.1282981
-0.016081991 -0.04798273 0.12930641
-0.014884245 -0.048125528 0.12969123
-0.013698893 -0.048338145 0.13026419
-0.012547686 -0.048726086 0.13130964
-0.011404729 -0.049236353 0.13268474
-0.010220937 -0.049676519 0.13387091
-0.0089742439 -0.049893655 0.13445607
-0.0077121458 -0.050083745 0.13496834
-0.0064138449 -0.050068043 0.13492602
-0.0051538921 -0.050419535 0.13587324
-0.0038811504 -0.050841857 0.13701133
-0.002594305 -0.051417917 0.13856374
-0.0012663595 -0.051534943 0.13887911
6.7337067e-05 -0.051417917 0.13856374
0.0014013402 -0.051534943 0.13887911
0.0027434856 -0.051691245 0.13930032
0.0040577473 -0.051391926 0.13849369
0.005380088 -0.051317453 0.138293
0.0066870195 -0.051154595 0.13785411
0.0080213202 -0.051220335 0.13803127
0.0093389787 -0.051176231 0.13791242
0.01066811 -0.051198147 0.13797148
0.011962968 -0.051068902 0.13762319
0.013266298 -0.050997946 0.13743198
0.014541674 -0.050842106 0.137012
0.01581216 -0.050696444 0.13661946
0.017061448 -0.050510343 0.13611795
0.018220121 -0.050101571 0.13501637
0.019555204 -0.050199974 0.13528155
0.021064486 -0.050705437 0.13664371
0.022041038 -0.049944453 0.13459297
0.023594588 -0.050502826 0.1360977
0.024957854 -0.050616663 0.13640447
0.026294485 -0.050667815 0.13654232
0.027514959 -0.050500922 0.13609256
0.028788084 -0.050441414 0.13593221
0.030045869 -0.050361361 0.13571647
0.031399179 -0.050441414 0.13593221
0.032652818 -0.050361361 0.13571647
0.034134086 -0.050625052 0.13642707
0.035653494 -0.050923716 0.13723193
0.037204154 -0.051244136 0.13809542
0.038645212 -0.051396728 0.13850664
0.039997946 -0.05142561 0.13858446
0.044187166 -0.054982066 0.14816859
0.046025105 -0.055482183 0.14951633
0.048174646 -0.056316301 0.15176415
0.050059028 -0.056800552 0.15306914
0.051664129 -0.056949321 0.15347005
0.052999299 -0.056800552 0.15306914
0.054612104 -0.056949321 0.15347005
0.056319445 -0.057186268 0.15410858
0.058081347 -0.057465054 0.15485989
0.060140729 -0.058016907 0.15634704
0.061065361 -0.057473857 0.15488359
0.063245215 -0.058109932 0.15659773
0.065386318 -0.058681682 0.15813851
0.066253267 -0.058109932 0.15659773
0.068423964 -0.058681682 0.15813851
0.070200637 -0.058898009 0.15872149
0.0718631 -0.05901137 0.15902697
0.074250147 -0.05970262 0.16088979
0.081122018 -0.063898303 0.17219654
0.083413355 -0.064390413 0.1735227
0.084429704 -0.063898303 0.17219654
0.086746521 -0.064390413 0.1735227
0.089199692 -0.064963281 0.1750665
0.0917992 -0.065619558 0.17683506
0.094166346 -0.066088907 0.17809989
0.097341329 -0.067098357 0.18082021
0.093996741 -0.063657187 0.17154677
0.096460834 -0.064200617 0.17301123
0.099855043 -0.065334201 0.17606607
0.10275985 -0.066115148 0.17817062
0.10543325 -0.066724069 0.17981157
0.10618229 -0.066115148 0.17817062
0.1209074 -0.074089818 0.19966118
0.1284873 -0.077505387 0.20886563
0.13174678 -0.078249864 0.21087189
0.13249935 -0.077505387 0.20886563
0.13579738 -0.078249864 0.21087189
0.13592042 -0.077169843 0.2079614
0.13641189 -0.076327264 0.20569076
0.13367558 -0.07372845 0.19868734
0.13461213 -0.073200047 0.19726337
0.13854933 -0.074295364 0.20021509
0.14093043 -0.074537687 0.2008681
0.14239521 -0.074295364 0.20021509
0.14478886 -0.074537687 0.2008681
0.15772034 -0.080127202 0.21593104
0.15807359 -0.079264402 0.21360593
0.16186813 -0.080127202 0.21593104
0.1621767 -0.079264402 0.21360593
0.16670786 -0.080461174 0.21683104
0.1669284 -0.079573572 0.21443909
0.16248696 -0.076512367 0.20618957
-0.099118412 -0.045515113 0.12593269
-0.099796213 -0.046392471 0.1283602
-0.098754577 -0.046482459 0.12860918
-0.094585255 -0.045083921 0.12473966
-0.09305805 -0.044925019 0.1243
-0.089492127 -0.043764971 0.12109035
-0.088054091 -0.0436287 0.12071331
-0.087166123 -0.043764971 0.12109035
-0.08565405 -0.043587334 0.12059886
-0.086184368 -0.0444584 0.12300895
-0.085041404 -0.044478521 0.12306461
-0.083821505 -0.0444584 0.12300895
-0.082799122 -0.044543959 0.12324568
-0.082603723 -0.045083355 0.12473809
-0.081719771 -0.045257296 0.12521936
-0.080207653 -0.045083355 0.12473809
-0.073198646 -0.041767575 0.11556389
-0.071422733 -0.041381706 0.11449625
-0.070923321 -0.04173493 0.11547356
-0.069223396 -0.041381706 0.11449625
-0.068705216 -0.04173493 0.11547356
-0.067852773 -0.041893363 0.11591192
-0.067494251 -0.042367131 0.11722275
-0.068347268 -0.043630365 0.12071791
-0.067245483 -0.043667797 0.12082148
-0.066028424 -0.043630365 0.12071791
-0.064716399 -0.043527726 0.12043393
-0.063916601 -0.043772142 0.12111019
-0.0626432 -0.043695271 0.12089749
-0.061289076 -0.043558117 0.12051802
-0.057937436 -0.041968726 0.11612044
-0.056842763 -0.041983936 0.11616252
-0.055508923 -0.041819572 0.11570776
-0.054259825 -0.04171364 0.11541466
-0.053298213 -0.041828908 0.11573359
-0.05262541 -0.042180579 0.11670659
-0.051859725 -0.042471483 0.11751148
-0.050383616 -0.042180579 0.11670659
-0.050270692 -0.043043636 0.11909454
-0.049274847 -0.043173298 0.11945329
-0.048165761 -0.04320756 0.11954809
-0.046742439 -0.042954724 0.11884852
-0.045705881 -0.043053545 0.11912195
-0.044722311 -0.043208636 0.11955106
-0.043375701 -0.043011907 0.11900674
-0.042425882 -0.043208636 0.11955106
-0.041089728 -0.043011907 0.11900674
-0.039946426 -0.043011568 0.11900581
-0.037232127 -0.041269839 0.11418674
-0.03645578 -0.041635711 0.11519904
-0.035762694 -0.042122543 0.11654603
-0.03533848 -0.042967763 0.11888459
-0.034323648 -0.043127313 0.11932605
-0.03311149 -0.043041386 0.11908831
-0.031950865 -0.043018695 0.11902552
-0.030743646 -0.042929254 0.11877806
-0.029553834 -0.042858168 0.11858137
-0.028532492 -0.043035477 0.11907197
-0.027276032 -0.042858168 0.11858137
-0.026245264 -0.043035477 0.11907197
-0.025239261 -0.043271411 0.11972474
-0.024704074 -0.04437558 0.12277979
-0.023717964 -0.044739865 0.1237877
-0.022701139 -0.045081593 0.12473321
-0.021648053 -0.045385379 0.12557374
-0.020523101 -0.045565452 0.12607197
-0.019417072 -0.04581276 0.12675624
-0.018583521 -0.046779044 0.12942977
-0.01749002 -0.047182593 0.13054633
-0.016385168 -0.047615491 0.13174409
-0.015148406 -0.047705434 0.13199295
-0.013926635 -0.047863334 0.13242982
-0.012737675 -0.048177056 0.13329785
-0.011570209 -0.048651282 0.13460995
-0.010388801 -0.049178809 0.13606954
-0.0091414712 -0.049501199 0.13696153
-0.0078613618 -0.049724631 0.13757972
-0.0065395297 -0.049721118 0.13757001
-0.0052513429 -0.050036412 0.13844237
-0.0039420668 -0.050296422 0.13916178
-0.002627739 -0.050725687 0.14034948
-0.0012810713 -0.050777387 0.14049251
6.8204878e-05 -0.050725687 0.14034948
0.00141762 -0.050777387 0.14049251
0.0027741734 -0.050909653 0.14085849
0.0041013262 -0.050592531 0.13998106
0.0054357722 -0.050499748 0.13972434
0.0067544132 -0.050325945 0.13924345
0.0081020892 -0.050390169 0.13942115
0.0094597163 -0.050489288 0.13969541
0.010834037 -0.050641816 0.14011742
0.012185394 -0.050665159 0.140182
0.013552939 -0.050744466 0.14040144
0.014886253 -0.050692853 0.14025863
0.016187998 -0.050551221 0.13986675
0.017459843 -0.050345078 0.1392964
0.01864839 -0.049945191 0.13818997
0.019941641 -0.049860224 0.13795489
0.021455595 -0.050303295 0.13918079
0.023000047 -0.050761707 0.14044914
0.024614297 -0.051314838 0.14197956
0.026092097 -0.051540364 0.14260355
0.027510133 -0.051631231 0.14285496
0.02820004 -0.05041182 0.13948107
0.029531801 -0.050398391 0.1394439
0.030854311 -0.050371017 0.13936818
0.03221035 -0.050398391 0.1394439
0.033531405 -0.050371017 0.13936818
0.035085712 -0.050682694 0.14023052
0.036654949 -0.050992094 0.14108658
0.038263835 -0.051332623 0.14202878
0.039667495 -0.051383872 0.14217056
0.041094791 -0.051461298 0.1423848
0.042930793 -0.05202907 0.14395572
0.044832747 -0.052638844 0.14564286
0.046976142 -0.053486612 0.1479885
0.050654929 -0.055981442 0.15489127
0.052315928 -0.056167569 0.15540625
0.053630203 -0.055981442 0.15489127
0.055301096 -0.056167569 0.15540625
0.057163209 -0.056533024 0.15641741
0.059091918 -0.056943938 0.15755434
0.061392922 -0.057684135 0.15960234
0.064345062 -0.05898517 0.16320208
0.066452526 -0.059468422 0.16453916
0.067140393 -0.058688331 0.16238078
0.069020003 -0.058961738 0.16313726
0.070259526 -0.058688331 0.16238078
0.07215368 -0.058961738 0.16313726
0.074045338 -0.05922154 0.16385607
0.076588161 -0.059980482 0.16595595
0.078881726 -0.060517248 0.1674411
0.08115869 -0.061020087 0.16883236
0.086588703 -0.063827448 0.17659986
0.087315515 -0.063126653 0.17466089
0.089980975 -0.063827448 0.17659986
0.092660971 -0.064512432 0.17849509
0.095189154 -0.065068766 0.18003437
0.098650075 -0.066231452 0.18325134
0.098647401 -0.065068766 0.18003437
0.10081466 -0.06535279 0.18082021
0.10404064 -0.066301875 0.18344617
0.10889607 -0.068240464 0.18880993
0.11223587 -0.069181323 0.19141313
0.11252288 -0.068240464 0.18880993
0.11591268 -0.069181323 0.19141313
0.12260377 -0.072032377 0.19930151
0.13635549 -0.07888028 0.21824852
0.13803464 -0.078642704 0.2175912
0.14054778 -0.07888028 0.21824852
0.14221431 -0.078642704 0.2175912
0.14196537 -0.077368133 0.21406466
0.14526604 -0.078036785 0.21591471
0.14607731 -0.077368133 0.21406466
0.14311314 -0.074746184 0.20681016
0.14729695 -0.07587821 0.2099423
0.14806604 -0.075244367 0.20818856
0.15132968 -0.07587821 0.2099423
0.14970566 -0.074076883 0.20495833
0.15034559 -0.073428012 0.20316301
0.16855581 -0.081267066 0.22485237
0.16913719 -0.080515794 0.22277372
0.17330275 -0.081468172 0.22540879
0.17471465 -0.081118546 0.22444145
0.17763259 -0.081468172 0.22540879
-0.095447443 -0.042658728 0.12126864
-0.097362936 -0.044052385 0.12523046
-0.096474484 -0.044196371 0.1256398
-0.094957411 -0.044052385 0.12523046
-0.093281396 -0.043830015 0.12459832
-0.091374613 -0.04349203 0.12363751
-0.090888008 -0.043830015 0.12459832
-0.09111169 -0.044524115 0.12657149
-0.089520007 -0.044337869 0.12604204
-0.088397905 -0.044382282 0.1261683
-0.087098897 -0.044337869 0.12604204
-0.085974365 -0.044382282 0.1261683
-0.086350873 -0.045213915 0.12853242
-0.085715152 -0.045531973 0.1294366
-0.078157939 -0.042128582 0.11976156
-0.076734088 -0.041978896 0.11933604
-0.075829446 -0.042113017 0.11971732
-0.074105896 -0.04178948 0.11879757
-0.073459528 -0.042072758 0.11960287
-0.07182394 -0.04178948 0.11879757
-0.071162105 -0.042072758 0.11960287
-0.072515488 -0.043576337 0.12387718
-0.071507834 -0.043687593 0.12419346
-0.069934525 -0.043451183 0.1235214
-0.069122225 -0.043687593 0.12419346
-0.067561828 -0.043451183 0.1235214
-0.065935083 -0.043162886 0.12270184
-0.064579241 -0.043044668 0.12236577
-0.061542496 -0.041780908 0.1187732
-0.06041358 -0.041789088 0.11879645
-0.059261005 -0.041780908 0.1187732
-0.058131639 -0.041789088 0.11879645
-0.056776576 -0.041632097 0.11835017
-0.055257984 -0.04134633 0.11753781
-0.054147534 -0.041360412 0.11757784
-0.053320851 -0.041596461 0.11824887
-0.052465215 -0.041819707 0.1188835
-0.051373392 -0.041860431 0.11899927
-0.050374608 -0.041980542 0.11934073
-0.049492341 -0.042205617 0.11998055
-0.048444781 -0.042297103 0.12024062
-0.047414277 -0.04240831 0.12055676
-0.046329409 -0.042475242 0.12074702
-0.045317885 -0.042614575 0.12114312
-0.04417225 -0.042631827 0.12119216
-0.042990867 -0.042614575 0.12114312
-0.040267725 -0.04102559 0.11662601
-0.039102912 -0.040978752 0.11649286
-0.038014431 -0.041011509 0.11658598
-0.037256036 -0.041413169 0.11772781
-0.036965303 -0.042376097 0.12046518
-0.03606328 -0.042677827 0.12132294
-0.03501698 -0.042823281 0.12173642
-0.033801373 -0.042764571 0.12156953
-0.032659471 -0.042798251 0.12166527
-0.031441141 -0.042730559 0.12147283
-0.030191248 -0.042613097 0.12113892
-0.029107796 -0.042730559 0.12147283
-0.028265763 -0.043227032 0.12288419
-0.02710811 -0.043263063 0.12298661
-0.025989989 -0.043368343 0.1232859
-0.024935123 -0.043594256 0.12392812
-0.023944994 -0.043961674 0.1249726
-0.022912618 -0.044286218 0.1258952
-0.021840252 -0.044565324 0.12668863
-0.020690555 -0.044710249 0.12710063
-0.019527707 -0.044843163 0.12747847
-0.018654818 -0.045704246 0.12992632
-0.017556587 -0.04609713 0.1310432
-0.016447343 -0.046519537 0.13224401
-0.01519807 -0.046583448 0.13242568
-0.013960776 -0.046699103 0.13275446
-0.012754839 -0.04695344 0.13347748
-0.011581127 -0.047396488 0.13473697
-0.010396942 -0.047902763 0.13617618
-0.0091624418 -0.048289549 0.13727573
-0.0078901481 -0.048573706 0.13808352
-0.0065743299 -0.048650593 0.13830209
-0.0052842945 -0.049005531 0.13931109
-0.0039626244 -0.049208295 0.1398875
-0.0026315097 -0.049441654 0.14055088
-0.0012799457 -0.049377698 0.14036907
6.8302747e-05 -0.049441654 0.14055088
0.0014163745 -0.049377698 0.14036907
0.0027695904 -0.049468003 0.14062579
0.0040969946 -0.049189206 0.13983323
0.0054303096 -0.049101509 0.13958393
0.0067546666 -0.048983574 0.13924867
0.0080932863 -0.048990961 0.13926968
0.0094620772 -0.049152981 0.13973026
0.01085084 -0.049365621 0.14033474
0.012230029 -0.049492523 0.1406955
0.013613032 -0.04960807 0.14102396
0.014981887 -0.049655817 0.1411597
0.01629173 -0.049516276 0.14076301
0.017626092 -0.049466934 0.14062275
0.018895704 -0.049255833 0.14002264
0.02021341 -0.049189817 0.13983497
0.021666316 -0.04944054 0.14054772
0.023120377 -0.049664337 0.14118393
0.024689246 -0.050096296 0.14241187
0.026253033 -0.050473131 0.14348313
0.027775744 -0.05073734 0.14423423
0.029236622 -0.050868869 0.14460813
0.030776305 -0.051119369 0.14532022
0.032292336 -0.051310543 0.1458637
0.033345386 -0.050780769 0.14435767
0.034466464 -0.050392747 0.14325461
0.036118325 -0.050780769 0.14435767
0.037758 -0.051123608 0.14533228
0.039436221 -0.05149233 0.14638047
0.040836554 -0.051485319 0.14636053
0.04230554 -0.051562443 0.14657979
0.043938559 -0.05182809 0.14733496
0.046025105 -0.052595433 0.14951633
0.048174646 -0.053386152 0.15176415
0.050059028 -0.053845208 0.15306914
0.051664129 -0.053986236 0.15347005
0.054209437 -0.055074655 0.15656418
0.055254016 -0.054620791 0.15527394
0.057216849 -0.055074655 0.15656418
0.059207525 -0.055531394 0.15786257
0.061419137 -0.056167368 0.1596705
0.064121634 -0.057210337 0.1626354
0.06626609 -0.057717636 0.16407755
0.067988299 -0.057842139 0.16443148
0.070080057 -0.058268256 0.16564281
0.071435638 -0.058076944 0.16509897
0.073581718 -0.058522657 0.16636603
0.075699143 -0.058927123 0.16751581
0.077888049 -0.059369233 0.16877264
0.081122018 -0.060573664 0.17219654
0.083413355 -0.061040163 0.1735227
0.085836872 -0.061583228 0.1750665
0.086746521 -0.061040163 0.1735227
0.089482784 -0.061778676 0.17562211
0.09203238 -0.062363368 0.17728424
0.095953979 -0.063839622 0.1814809
0.099454679 -0.064988181 0.18474597
0.10320467 -0.066256501 0.18835151
0.10300343 -0.064988181 0.18474597
0.10682268 -0.066256501 0.18835151
0.1129569 -0.068894535 0.19585082
0.11707214 -0.07023491 0.19966118
0.11671896 -0.068894535 0.19585082
0.1209074 -0.07023491 0.19966118
0.12620473 -0.072167523 0.20515513
0.13174678 -0.074178509 0.21087189
0.13306481 -0.073786311 0.20975697
0.14380582 -0.078553073 0.22330773
0.14573823 -0.078438789 0.22298287
0.14635393 -0.077629417 0.22068201
0.15037107 -0.078621589 0.22350252
0.15059297 -0.077629417 0.22068201
0.15466429 -0.078621589 0.22350252
0.15911984 -0.079779245 0.22679345
0.15553375 -0.076928169 0.21868853
0.15836222 -0.077283509 0.21969865
0.15973447 -0.076928169 0.21868853
0.15807359 -0.07514026 0.21360593
0.16186813 -0.07595817 0.21593104
0.1621767 -0.07514026 0.21360593
0.17700231 -0.080984838 0.23022066
0.17655393 -0.07978303 0.22680421
0.18142457 -0.080984838 0.23022066
-0.099118412 -0.043083698 0.12593269
-0.099796213 -0.043914191 0.1283602
-0.098215856 -0.043759346 0.1279076
-0.097330563 -0.043914191 0.1283602
-0.095517561 -0.043649059 0.12758523
-0.095076837 -0.044012286 0.12864693
-0.094798416 -0.044461198 0.12995909
-0.092605673 -0.044012286 0.12864693
-0.090093397 -0.043397304 0.12684935
-0.089219026 -0.043565247 0.12734026
-0.087656766 -0.043397304 0.12684935
-0.086772971 -0.043565247 0.12734026
-0.083356112 -0.04244807 0.12407476
-0.082603723 -0.042675003 0.12473809
-0.080972783 -0.04244807 0.12407476
-0.080207653 -0.042675003 0.12473809
-0.078565449 -0.042435095 0.12403685
-0.076827943 -0.042135533 0.12316123
-0.075630926 -0.042127661 0.12313823
-0.076639816 -0.043367788 0.12676309
-0.075222567 -0.043252926 0.12642734
-0.074537784 -0.043562368 0.12733184
-0.073235951 -0.043515492 0.12719482
-0.072091892 -0.043562368 0.12733184
-0.07079269 -0.043515492 0.12719482
-0.068843968 -0.043060705 0.12586549
-0.06502796 -0.041400839 0.12101374
-0.063916601 -0.041433837 0.12111019
-0.0626432 -0.041361071 0.12089749
-0.061590221 -0.041433837 0.12111019
-0.06032091 -0.041361071 0.12089749
-0.058974072 -0.041231249 0.12051802
-0.057126764 -0.04073932 0.11908013
-0.055942122 -0.040709525 0.11899303
-0.054788481 -0.040701509 0.11896961
-0.053812496 -0.040827945 0.11933918
-0.052503217 -0.040701509 0.11896961
-0.051520132 -0.040827945 0.11933918
-0.050511245 -0.040939219 0.11966443
-0.049756706 -0.041266628 0.12062144
-0.048859656 -0.041488629 0.12127034
-0.047918878 -0.041683439 0.12183977
-0.046826001 -0.041752379 0.12204129
-0.045770392 -0.041858945 0.12235277
-0.043417692 -0.040753625 0.11912195
-0.042425882 -0.040900432 0.11955106
-0.041089728 -0.040714208 0.11900674
-0.039946426 -0.040713891 0.11900581
-0.038894884 -0.040809833 0.11928623
-0.038079295 -0.041166678 0.12032928
-0.037564069 -0.041880742 0.12241648
-0.036541808 -0.04205738 0.12293279
-0.035461325 -0.042176571 0.12328118
-0.034295678 -0.042199206 0.12334733
-0.033176359 -0.042282499 0.12359081
-0.03217078 -0.042522315 0.12429179
-0.030907853 -0.04242735 0.12401421
-0.029783286 -0.042522315 0.12429179
-0.02852569 -0.04242735 0.12401421
-0.027295073 -0.042365987 0.12383485
-0.02613456 -0.042412803 0.12397168
-0.025051355 -0.042595528 0.12450579
-0.024034645 -0.042915311 0.12544051
-0.022958428 -0.043156985 0.12614691
-0.02185213 -0.043365888 0.12675753
-0.020677472 -0.043455776 0.12702027
-0.019653508 -0.04389349 0.1282997
-0.018611236 -0.044346143 0.12962279
-0.017489722 -0.044661343 0.13054411
-0.016381273 -0.045061164 0.13171278
-0.015169641 -0.045220315 0.13217798
-0.013956704 -0.045404296 0.13271575
-0.012747644 -0.045639135 0.13340218
-0.011568063 -0.046043795 0.13458499
-0.010356911 -0.046408795 0.13565187
-0.0091145691 -0.046718962 0.13655849
-0.0078460649 -0.04697676 0.13731202
-0.0065330802 -0.047018602 0.13743433
-0.0052503236 -0.047354273 0.13841549
-0.0039408859 -0.04759533 0.13912009
-0.0026104928 -0.047700789 0.13942835
-0.001269439 -0.047628421 0.13921683
6.7757239e-05 -0.047700789 0.13942835
0.0014047478 -0.047628421 0.13921683
0.0027479741 -0.047734953 0.13952821
0.0040748301 -0.047580495 0.13907672
0.0054075583 -0.047553938 0.1389991
0.0067480137 -0.047592402 0.13911153
0.0080844648 -0.047594573 0.13911788
0.0094512906 -0.047749586 0.13957098
0.01082982 -0.04791788 0.1400629
0.012219016 -0.048090953 0.14056879
0.01358705 -0.048154593 0.1407548
0.014969266 -0.04825243 0.14104077
0.016298752 -0.048178159 0.14082369
0.017688997 -0.048281107 0.14112461
0.019034209 -0.048255235 0.14104898
0.020379707 -0.048233483 0.1409854
0.021831231 -0.048449736 0.14161751
0.023216369 -0.048501942 0.14177009
0.024691235 -0.048725426 0.14242335
0.026238626 -0.049061056 0.14340438
0.027802328 -0.049392186 0.14437227
0.02935392 -0.049671367 0.1451883
0.03099166 -0.050064385 0.14633709
0.032582171 -0.050350327 0.14717288
0.034269538 -0.050755933 0.14835846
0.035409186 -0.050350327 0.14717288
0.036808036 -0.050330285 0.14711431
0.038478561 -0.050669476 0.14810576
0.040188096 -0.051034018 0.14917131
0.041590631 -0.050997026 0.14906318
0.043147821 -0.051145826 0.14949812
0.044832502 -0.051431295 0.15033253
0.04679006 -0.052002225 0.15200135
0.048790071 -0.052584361 0.15370291
0.050654929 -0.052990917 0.15489127
0.052315928 -0.053167101 0.15540625
0.054158621 -0.053513035 0.15641741
0.055301096 -0.053167101 0.15540625
0.057067979 -0.053423882 0.15615682
0.058996648 -0.053815093 0.15730032
0.061043564 -0.054291934 0.15869412
0.062979087 -0.054648891 0.1597375
0.066001132 -0.05590925 0.1634215
0.067877293 -0.056162931 0.16416301
0.069954045 -0.0565673 0.16534497
0.071860425 -0.056819014 0.16608071
0.073130123 -0.0565673 0.16534497
0.075349636 -0.057045378 0.16674237
0.077511765 -0.057461008 0.16795726
0.081529289 -0.059207104 0.17306104
0.083960496 -0.059754439 0.17466089
0.086588703 -0.060417786 0.17659986
0.087315515 -0.059754439 0.17466089
0.089980975 -0.060417786 0.17659986
0.092057995 -0.060668804 0.17733358
0.095972992 -0.062099975 0.18151686
0.099208683 -0.063048378 0.18428899
0.10332683 -0.064514503 0.18857446
0.10274865 -0.063048378 0.18428899
0.10694912 -0.064514503 0.18857446
0.11798132 -0.069984257 0.20456244
0.12416249 -0.072444424 0.21175343
0.1268495 -0.072819419 0.21284956
0.1248968 -0.070561297 0.2062491
0.13093808 -0.072819419 0.21284956
0.13635549 -0.0746665 0.21824852
0.13803464 -0.074441619 0.2175912
0.14054778 -0.0746665 0.21824852
0.14221431 -0.074441619 0.2175912
0.15176612 -0.078290999 0.22884287
0.15641797 -0.07953883 0.23249024
0.15616192 -0.078290999 0.22884287
0.16088381 -0.07953883 0.23249024
0.16484076 -0.080379494 0.23494747
0.16788793 -0.080759823 0.23605916
0.1693538 -0.080379494 0.23494747
0.16585593 -0.077684224 0.22706926
0.16485798 -0.076214649 0.22277372
0.16777015 -0.076567225 0.2238043
0.16913719 -0.076214649 0.22277372
0.17330275 -0.077116147 0.22540879
0.17471465 -0.076785207 0.22444145
0.17763259 -0.077116147 0.22540879
-0.10442504 -0.044109531 0.13267492
-0.1025459 -0.043850873 0.13189691
-0.10187652 -0.044109531 0.13267492
-0.10239623 -0.044896115 0.13504083
-0.10041732 -0.044593278 0.13412996
-0.098616853 -0.044362854 0.13343687
-0.097840838 -0.044593278 0.13412996
-0.09605369 -0.044362854 0.13343687
-0.092811964 -0.043445308 0.13067703
-0.091561787 -0.043447632 0.13068402
-0.087098897 -0.041904341 0.12604204
-0.085974365 -0.041946318 0.1261683
-0.086350873 -0.042732306 0.12853242
-0.085715152 -0.043032911 0.1294366
-0.083881922 -0.042732306 0.12853242
-0.083228834 -0.043032911 0.1294366
-0.081145838 -0.04259209 0.12811068
-0.08086735 -0.043099444 0.12963672
-0.080520235 -0.043585513 0.13109875
-0.078377187 -0.043099444 0.12963672
-0.076950543 -0.042997994 0.12933157
-0.076753043 -0.043591287 0.13111612
-0.075231023 -0.043439589 0.13065983
-0.074234456 -0.043591287 0.13111612
-0.069122225 -0.041289758 0.12419346
-0.067561828 -0.041066322 0.1235214
-0.065889284 -0.040765516 0.12261661
-0.064579241 -0.040682122 0.12236577
-0.063136525 -0.040510498 0.12184957
-0.062228747 -0.040682122 0.12236577
-0.06079594 -0.040510498 0.12184957
-0.059123401 -0.040169269 0.12082318
-0.057034254 -0.03952565 0.11888729
-0.055941883 -0.039560638 0.11899251
-0.055040188 -0.039734736 0.11951618
-0.053656179 -0.039560638 0.11899251
-0.052744426 -0.039734736 0.11951618
-0.051858477 -0.039936446 0.1201229
-0.050837282 -0.040040821 0.12043683
-0.050322741 -0.040558394 0.12199363
-0.049211476 -0.040608242 0.12214356
-0.048357017 -0.04087761 0.12295378
-0.046329409 -0.040143944 0.12074702
-0.045317885 -0.040275633 0.12114312
-0.044010002 -0.040143944 0.12074702
-0.042990867 -0.040275633 0.12114312
-0.041844293 -0.040291939 0.12119216
-0.040846292 -0.040456329 0.12168663
-0.039825093 -0.040606752 0.12213908
-0.038920235 -0.040888533 0.12298663
-0.037734598 -0.040883739 0.12297221
-0.036483921 -0.040805887 0.12273805
-0.035352718 -0.040860932 0.12290361
-0.034404486 -0.04113856 0.12373868
-0.03349008 -0.041477945 0.1247595
-0.032441787 -0.04167055 0.12533882
-0.031093599 -0.041477945 0.1247595
-0.030034179 -0.04167055 0.12533882
-0.028887723 -0.041753441 0.12558813
-0.027664693 -0.04172805 0.12551177
-0.026479965 -0.041760754 0.12561014
-0.025330214 -0.041854374 0.12589173
-0.024231305 -0.042045601 0.12646692
-0.023108508 -0.042213369 0.12697154
-0.021973679 -0.042376626 0.1274626
-0.020789044 -0.042457432 0.12770565
-0.019792795 -0.042957239 0.12920898
-0.01873141 -0.043373078 0.13045977
-0.017631598 -0.043753184 0.13160308
-0.016513782 -0.04414387 0.13277821
-0.015315874 -0.044367932 0.13345215
-0.01406799 -0.044474926 0.13377397
-0.012754839 -0.044376351 0.13347748
-0.011581127 -0.044795088 0.13473697
-0.010396942 -0.045273572 0.13617618
-0.0091624418 -0.045639131 0.13727573
-0.0078901481 -0.045907691 0.13808352
-0.0065743299 -0.04598036 0.13830209
-0.0052842945 -0.046315819 0.13931109
-0.0039626244 -0.046507448 0.1398875
-0.0026315097 -0.046728004 0.14055088
-0.0012799457 -0.046667557 0.14036907
6.8302747e-05 -0.046728004 0.14055088
0.0014163745 -0.046667557 0.14036907
0.0027695904 -0.046752907 0.14062579
0.0040969946 -0.04648941 0.13983323
0.0054303096 -0.046406522 0.13958393
0.0067546666 -0.046295062 0.13924867
0.0080932863 -0.04630205 0.13926968
0.0094620772 -0.046455175 0.13973026
0.01085084 -0.046656143 0.14033474
0.012230029 -0.046776079 0.1406955
0.013653956 -0.047026232 0.14144792
0.015041956 -0.047118571 0.14172566
0.01641308 -0.04714711 0.1418115
0.017854799 -0.047358524 0.1424474
0.019281749 -0.047503453 0.14288333
0.020690979 -0.047588378 0.14313877
0.02214249 -0.047753897 0.14363663
0.023506131 -0.047721613 0.14353952
0.024913577 -0.047776919 0.14370586
0.026443493 -0.04804894 0.14452407
0.028024979 -0.048382863 0.14552847
0.029625209 -0.048715886 0.14653014
0.031268008 -0.04908552 0.14764196
0.032869659 -0.0493613 0.14847146
0.03447061 -0.049613137 0.14922895
0.03602149 -0.049775675 0.14971784
0.037337121 -0.049613137 0.14922895
0.038897391 -0.049775675 0.14971784
0.040660746 -0.050177246 0.1509257
0.041956984 -0.049994562 0.15037622
0.043607473 -0.050232109 0.15109071
0.045312181 -0.050514795 0.151941
0.046905786 -0.050659847 0.15237729
0.048774473 -0.051084232 0.15365377
0.050558493 -0.051397618 0.15459639
0.052271392 -0.051622879 0.15527394
0.054209437 -0.052051835 0.15656418
0.056175172 -0.052483499 0.15786257
0.057216849 -0.052051835 0.15656418
0.059207525 -0.052483499 0.15786257
0.061322361 -0.053000927 0.15941891
0.063132904 -0.053236548 0.16012762
0.066319376 -0.054593615 0.16420949
0.068435654 -0.055027124 0.16551341
0.070415579 -0.055333808 0.16643587
0.072168693 -0.055452596 0.16679317
0.073612608 -0.055333808 0.16643587
0.075372592 -0.055452596 0.16679317
0.07725165 -0.055652227 0.16739364
0.07940232 -0.056035403 0.16854617
0.083312616 -0.057620242 0.17331313
0.086109295 -0.058387894 0.17562211
0.088626966 -0.058940493 0.17728424
0.089482784 -0.058387894 0.17562211
0.09203238 -0.058940493 0.17728424
0.094888225 -0.059665579 0.17946519
0.099454679 -0.061421242 0.18474597
0.10457521 -0.063451536 0.19085279
0.10367332 -0.061820697 0.18594748
0.10824127 -0.063451536 0.19085279
0.11523457 -0.066426143 0.19979997
0.1278358 -0.072482996 0.21801808
0.13454697 -0.075058788 0.22576568
0.13202366 -0.072482996 0.21801808
0.13476567 -0.072833255 0.2190716
0.13951634 -0.074241608 0.22330773
0.14145499 -0.074133605 0.22298287
0.14313164 -0.073893562 0.22226085
0.14573823 -0.074133605 0.22298287
0.14740101 -0.073893562 0.22226085
0.15037107 -0.074306369 0.22350252
0.16518502 -0.080477886 0.2420655
0.16738972 -0.080420136 0.2418918
0.16983481 -0.080477886 0.2420655
0.17324799 -0.080986612 0.24359569
0.1747774 -0.080612935 0.24247172
0.17792717 -0.080986612 0.24359569
0.17627808 -0.079194658 0.23820576
0.17319925 -0.07681454 0.23104671
0.17574006 -0.076955415 0.23147045
0.17763738 -0.07681454 0.23104671
0.17655393 -0.075404063 0.22680421
0.18142457 -0.076539904 0.23022066
-0.10911965 -0.044754177 0.13863955
-0.10715914 -0.044493034 0.13783057
-0.10645656 -0.044754177 0.13863955
-0.10451159 -0.044493034 0.13783057
-0.10303637 -0.044427738 0.1376283
-0.1018873 -0.044503197 0.13786206
-0.1003927 -0.044427738 0.1376283
-0.097277604 -0.043623563 0.13513713
-0.090093397 -0.04094819 0.12684935
-0.088916332 -0.040967193 0.12690823
-0.087656766 -0.04094819 0.12684935
-0.088077456 -0.041724622 0.12925459
-0.088266119 -0.042411778 0.13138326
-0.085594632 -0.041724622 0.12925459
-0.085742414 -0.042411778 0.13138326
-0.086796157 -0.043574274 0.13498445
-0.084085666 -0.04285362 0.132752
-0.082202263 -0.042538784 0.13177669
-0.08153566 -0.04285362 0.132752
-0.079670995 -0.042538784 0.13177669
-0.079773411 -0.043281015 0.13407598
-0.079219475 -0.043685663 0.1353295
-0.073235951 -0.041059706 0.12719482
-0.072091892 -0.04110394 0.12733184
-0.07079269 -0.041059706 0.12719482
-0.067961134 -0.04010956 0.12425144
-0.066229656 -0.039786294 0.12325003
-0.064739473 -0.039598856 0.12266938
-0.063862175 -0.039786294 0.12325003
-0.062383149 -0.039598856 0.12266938
-0.060886737 -0.039392959 0.12203155
-0.059640411 -0.039343949 0.12187973
-0.058009237 -0.03903402 0.12091964
-0.057028245 -0.039157871 0.12130329
-0.056240872 -0.039422601 0.12212338
-0.054698154 -0.039157871 0.12130329
-0.05389503 -0.039422601 0.12212338
-0.053088695 -0.039696712 0.12297253
-0.05204894 -0.03980479 0.12330732
-0.051391747 -0.04021728 0.12458514
-0.048859656 -0.039147232 0.12127034
-0.047918878 -0.039331049 0.12183977
-0.046826001 -0.0393961 0.12204129
-0.045578483 -0.039331049 0.12183977
-0.044481739 -0.0393961 0.12204129
-0.043420143 -0.039496653 0.12235277
-0.042437144 -0.039676275 0.12290921
-0.041524827 -0.039934155 0.12370808
-0.040437542 -0.040034007 0.1240174
-0.039181866 -0.039968148 0.12381338
-0.037806727 -0.039772488 0.12320726
-0.036974169 -0.040153425 0.12438732
-0.03579789 -0.04017406 0.12445125
-0.034909863 -0.040530782 0.12555631
-0.034041394 -0.040936548 0.12681329
-0.032498077 -0.040530782 0.12555631
-0.031605463 -0.040936548 0.12681329
-0.030629251 -0.041262228 0.12782218
-0.029592799 -0.041530561 0.12865342
-0.028427936 -0.041634217 0.12897453
-0.027203107 -0.041655492 0.12904043
-0.025991615 -0.041700196 0.12917891
-0.024806598 -0.041793983 0.12946945
-0.023641573 -0.04193313 0.1299005
-0.022473492 -0.042082056 0.13036186
-0.021371983 -0.042380575 0.13128661
-0.020229299 -0.042629756 0.13205852
-0.018611236 -0.041843481 0.12962279
-0.017489722 -0.04214089 0.13054411
-0.016381273 -0.042518154 0.13171278
-0.015169641 -0.042668324 0.13217798
-0.013956704 -0.042841919 0.13271575
-0.012747644 -0.043063506 0.13340218
-0.011568063 -0.04344533 0.13458499
-0.010356911 -0.043789729 0.13565187
-0.0091145691 -0.044082392 0.13655849
-0.0078460649 -0.044325639 0.13731202
-0.0065330802 -0.044365127 0.13743433
-0.0052503236 -0.044681847 0.13841549
-0.0039408859 -0.044909302 0.13912009
-0.0026104928 -0.045008808 0.13942835
-0.001269439 -0.044940531 0.13921683
6.7757239e-05 -0.045008808 0.13942835
0.0014047478 -0.044940531 0.13921683
0.0027479741 -0.045041047 0.13952821
0.0040748301 -0.044895303 0.13907672
0.0054075583 -0.044870242 0.1389991
0.0067480137 -0.044906542 0.13911153
0.0080844648 -0.044908591 0.13911788
0.0094512906 -0.045054853 0.13957098
0.01082982 -0.045213647 0.1400629
0.012219016 -0.045376956 0.14056879
0.01358705 -0.045437004 0.1407548
0.014969266 -0.045529317 0.14104077
0.016298752 -0.045459237 0.14082369
0.017688997 -0.045556381 0.14112461
0.019712394 -0.047154263 0.14607453
