# .PCD v0.7 - Point Cloud Data file format
VERSION 0.7
FIELDS x y z
SIZE 4 4 4
TYPE F F F
COUNT 1 1 1
WIDTH 1497
HEIGHT 1
VIEWPOINT 0 0 0 1 0 0 0
POINTS 1497
DATA ascii
0.0063514314 -0.044777624 0.10929575
0.0074521583 -0.045086224 0.11004899
0.008550344 -0.045304686 0.11058224
0.0095901266 -0.045199618 0.11032578
0.010620927 -0.045077335 0.11002731
0.011704613 -0.045181334 0.11028115
0.012769377 -0.045201082 0.11032935
0.013861075 -0.045305844 0.11058506
0.014962306 -0.045424633 0.11087501
0.016024711 -0.045417603 0.11085784
0.017167082 -0.045623958 0.11136154
0.018331857 -0.045862168 0.11194296
0.019467058 -0.046004094 0.11228938
0.020675223 -0.046294492 0.11299821
0.023110263 -0.049166042 0.12000725
0.024198331 -0.049035288 0.11968809
0.025415456 -0.049166042 0.12000725
0.026497394 -0.049035288 0.11968809
0.027650088 -0.049040895 0.11970178
0.028888837 -0.049192589 0.12007205
0.030165181 -0.049394198 0.12056416
0.031586491 -0.049809504 0.12157785
0.033064377 -0.050281238 0.12272929
0.034208082 -0.050229788 0.12260371
0.035570282 -0.050491925 0.12324355
0.036847636 -0.050620608 0.12355764
0.037108108 -0.049387883 0.12054874
0.038572785 -0.049783956 0.12151549
0.039423708 -0.049387883 0.12054874
0.040906951 -0.049783956 0.12151549
0.042513222 -0.050303623 0.12278392
0.043960616 -0.050612323 0.12353741
0.045573764 -0.051090617 0.12470486
0.046887826 -0.051217705 0.12501507
0.048210215 -0.051347319 0.12533143
0.052414998 -0.054465793 0.13294318
0.053728722 -0.05450321 0.13303451
0.054968681 -0.054465793 0.13294318
0.056284159 -0.05450321 0.13303451
0.058146622 -0.055056889 0.13438596
0.06158109 -0.057042666 0.13923296
0.063960895 -0.057987865 0.14154005
0.066593051 -0.059117746 0.14429793
0.063281827 -0.055032898 0.13432741
0.065525733 -0.055845778 0.13631153
0.068949282 -0.05761249 0.14062382
0.077377595 -0.063412845 0.15478165
0.082796283 -0.066574559 0.16249894
0.089577228 -0.070694365 0.17255481
0.093304358 -0.072298221 0.17646958
nan nan nan
nan nan nan
nan nan nan
nan nan nan
nan nan nan
nan nan nan
nan nan nan
nan nan nan
nan nan nan
nan nan nan
nan nan nan
nan nan nan
nan nan nan
nan nan nan
nan nan nan
nan nan nan
nan nan nan
nan nan nan
nan nan nan
nan nan nan
nan nan nan
nan nan nan
nan nan nan
nan nan nan
nan nan nan
nan nan nan
nan nan nan
-0.09333723 -0.047439598 0.11858755
-0.091516927 -0.047089022 0.11771119
-0.089762494 -0.046763994 0.11689869
-0.088759907 -0.04682738 0.11705715
-0.087517016 -0.046763994 0.11689869
-0.088234119 -0.047759876 0.11938816
-0.086664133 -0.047527712 0.11880782
-0.085097402 -0.047291167 0.1182165
-0.084381975 -0.047527712 0.11880782
-0.082826607 -0.047291167 0.1182165
-0.082227364 -0.047601547 0.11899238
-0.077575922 -0.045541793 0.11384349
-0.076966241 -0.045829825 0.1145635
-0.075389124 -0.045541793 0.11384349
-0.074640796 -0.045753311 0.11437223
-0.074162163 -0.046138935 0.1153362
-0.072443843 -0.045753311 0.11437223
-0.074184634 -0.047574114 0.1189238
-0.072716661 -0.047361925 0.11839338
-0.070978232 -0.046964042 0.11739877
-0.068875007 -0.046308048 0.11575893
-0.068723142 -0.046964042 0.11739877
-0.066651419 -0.046308048 0.11575893
-0.0650407 -0.04595552 0.11487771
-0.061307292 -0.044065133 0.11015219
-0.060015246 -0.043893918 0.10972419
-0.059191398 -0.044065133 0.11015219
-0.057907578 -0.043893918 0.10972419
-0.056512039 -0.043630105 0.10906473
-0.054784868 -0.043095455 0.10772824
-0.053477701 -0.042876966 0.10718207
-0.053828597 -0.04400539 0.11000285
-0.052941374 -0.044146556 0.11035573
-0.051715575 -0.04400539 0.11000285
-0.05080846 -0.044135168 0.11032726
-0.049710855 -0.044101465 0.11024302
-0.048739269 -0.044180542 0.11044069
-0.047845557 -0.044335291 0.11082753
-0.043914378 -0.041618425 0.10403603
-0.042934757 -0.041637417 0.10408349
-0.041915976 -0.041618425 0.10403603
-0.041214395 -0.041921161 0.10479278
-0.040589131 -0.042318609 0.1057863
-0.040733203 -0.043559182 0.10888743
-0.039985783 -0.043886662 0.10970606
-0.039000403 -0.043963633 0.10989847
-0.037857551 -0.043862436 0.1096455
-0.037907783 -0.045177326 0.11293241
-0.036768992 -0.0451109 0.11276636
-0.035720263 -0.045154285 0.11287481
-0.034592357 -0.045097172 0.11273205
-0.03362564 -0.045253295 0.11312231
-0.032774691 -0.045580842 0.1139411
-0.031818241 -0.045779232 0.11443702
-0.030866237 -0.045998435 0.11498499
-0.029940898 -0.04627512 0.11567663
-0.028700028 -0.046066679 0.11515557
-0.027525367 -0.045952052 0.11486904
-0.024750751 -0.043045282 0.10760282
-0.023635322 -0.04289652 0.10723095
-0.022683829 -0.043045282 0.10760282
-0.021575546 -0.04289652 0.10723095
-0.020506574 -0.042814925 0.10702697
-0.019488893 -0.042837448 0.10708328
-0.018507376 -0.042946398 0.10735563
-0.017609145 -0.043272879 0.10817175
-0.016686229 -0.043575831 0.10892906
-0.015665552 -0.043646935 0.1091068
-0.014644049 -0.04372577 0.10930387
-0.013527827 -0.043512117 0.1087698
-0.012476008 -0.043487195 0.10870749
-0.011393938 -0.043342642 0.10834614
-0.010346096 -0.043312315 0.10827033
-0.0092669539 -0.043129548 0.10781346
-0.0082149738 -0.043043107 0.10759738
-0.0071713645 -0.042981964 0.10744453
-0.006183106 -0.04328778 0.108209
-0.0051644519 -0.043461367 0.10864293
-0.0041671633 -0.0439482 0.10985989
-0.0031244773 -0.044124052 0.11029947
-0.0020714037 -0.04425836 0.11063521
-0.00100606 -0.044137299 0.11033259
5.376479e-05 -0.04425836 0.11063521
0.0011132954 -0.044137299 0.11033259
0.0021670922 -0.04401784 0.11003397
0.0032152978 -0.043900363 0.10974031
0.0042953868 -0.044168744 0.1104112
0.0053867903 -0.04442415 0.11104966
0.006498713 -0.044736393 0.11183018
0.007622784 -0.045031827 0.11256869
0.0087213283 -0.045121796 0.1127936
0.0097942054 -0.045073766 0.11267353
0.010887944 -0.045121744 0.11279347
0.011985205 -0.045174316 0.11292488
0.013050028 -0.045106042 0.11275422
0.014201661 -0.04532529 0.11330228
0.015358256 -0.045528043 0.11380912
0.016540579 -0.045775056 0.11442659
0.017767699 -0.046107531 0.1152577
0.018941343 -0.046270378 0.11566478
0.020073853 -0.046320267 0.11578949
0.021260325 -0.046482895 0.11619602
0.022438422 -0.046611909 0.11651852
0.023540627 -0.0465785 0.11643501
0.024676602 -0.046611909 0.11651852
0.027346091 -0.049413428 0.12352164
0.028573984 -0.049485371 0.12370148
0.029908884 -0.049729493 0.12431172
0.031292375 -0.05003256 0.12506932
0.032784261 -0.050480127 0.12618813
0.034160905 -0.050724659 0.1267994
0.035444494 -0.050818939 0.12703508
0.03689225 -0.051134489 0.12782387
0.038374238 -0.051475633 0.12867665
0.040081926 -0.052088797 0.13020942
0.041762836 -0.052631117 0.13156508
0.040852539 -0.049971938 0.12491778
0.042489842 -0.050491888 0.12621753
0.044170681 -0.051033288 0.1275709
0.045710102 -0.051386476 0.12845379
0.047347561 -0.051828422 0.12955855
0.048608575 -0.051846221 0.12960304
0.049806848 -0.051797878 0.12948219
0.05101781 -0.05176476 0.1293994
0.05230302 -0.05180677 0.12950441
0.056932095 -0.055082019 0.13769175
0.058463529 -0.055279627 0.13818572
0.060669884 -0.05609246 0.14021762
0.063512802 -0.05744575 0.14360051
0.067535244 -0.05978569 0.1494498
0.070265695 -0.060908295 0.15225604
0.073659301 -0.062548257 0.15635553
0.073190354 -0.060908295 0.15225604
0.073034868 -0.059588347 0.14895648
0.077718958 -0.062191803 0.1554645
0.086955294 -0.06827122 0.17066155
nan nan nan
nan nan nan
nan nan nan
nan nan nan
nan nan nan
nan nan nan
nan nan nan
nan nan nan
nan nan nan
nan nan nan
nan nan nan
nan nan nan
nan nan nan
nan nan nan
nan nan nan
nan nan nan
nan nan nan
nan nan nan
nan nan nan
nan nan nan
nan nan nan
nan nan nan
nan nan nan
nan nan nan
nan nan nan
nan nan nan
nan nan nan
nan nan nan
nan nan nan
-0.094196662 -0.046721075 0.11967948
-0.09218026 -0.04628576 0.11856439
-0.091923624 -0.046734221 0.11971316
-0.091104887 -0.046904657 0.12014973
-0.089960463 -0.04690963 0.12016248
-0.088796958 -0.046904657 0.12014973
-0.088065296 -0.047130663 0.12072868
-0.086428136 -0.046871632 0.12006515
-0.085746251 -0.047130663 0.12072868
-0.081722774 -0.045534912 0.11664103
-0.080733053 -0.045608658 0.11682995
-0.079482242 -0.045534912 0.11664103
-0.078488894 -0.045608658 0.11682995
-0.076977879 -0.045379378 0.11624262
-0.076789603 -0.045934595 0.11766485
-0.07896588 -0.047941975 0.12280691
-0.077015303 -0.047466725 0.12158952
-0.076606914 -0.047941975 0.12280691
-0.074659266 -0.047453728 0.12155622
-0.072786726 -0.046998464 0.12039004
-0.072324321 -0.047453728 0.12155622
-0.070474178 -0.046998464 0.12039004
-0.064960614 -0.044044163 0.11282238
-0.063759513 -0.043963142 0.11261483
-0.062751092 -0.044014461 0.1127463
-0.061596319 -0.043963142 0.11261483
-0.060585368 -0.044014461 0.1127463
-0.059372358 -0.043918189 0.11249968
-0.057545222 -0.043355655 0.11105871
-0.058012322 -0.044533033 0.11407465
-0.056672383 -0.04434187 0.11358497
-0.055821083 -0.044533033 0.11407465
-0.054490551 -0.04434187 0.11358497
-0.053163283 -0.044145606 0.11308223
-0.05206899 -0.044138651 0.11306442
-0.051050156 -0.044196725 0.11321317
-0.047305774 -0.041846331 0.10719247
-0.046272948 -0.04184334 0.1071848
-0.045246735 -0.041846331 0.10719247
-0.044214059 -0.04184334 0.1071848
-0.043167196 -0.041826464 0.10714158
-0.042441435 -0.04212749 0.10791267
-0.042166479 -0.042902254 0.10989729
-0.041695755 -0.043512508 0.11146051
-0.040965255 -0.043876681 0.11239336
-0.041036066 -0.045142062 0.11563472
-0.039888084 -0.045099799 0.11552646
-0.038814865 -0.045142062 0.11563472
-0.037668958 -0.045099799 0.11552646
-0.03661304 -0.045165967 0.11569596
-0.035454769 -0.045106076 0.11554254
-0.03444175 -0.045233071 0.11586785
-0.033611007 -0.045615923 0.11684855
-0.032593466 -0.045762952 0.11722519
-0.031673077 -0.046061795 0.11799068
-0.028922429 -0.043622315 0.11174178
-0.027651133 -0.043312043 0.110947
-0.026570035 -0.043286759 0.11088223
-0.025324909 -0.04298098 0.11009896
-0.024440121 -0.043286759 0.11088223
-0.023210041 -0.04298098 0.11009896
-0.022067355 -0.04281557 0.10967524
-0.021001151 -0.042789415 0.10960824
-0.020047955 -0.043002892 0.11015508
-0.019031009 -0.043095801 0.11039307
-0.018065754 -0.043323625 0.11097667
-0.017082291 -0.043533619 0.11151458
-0.016061157 -0.043669287 0.1118621
-0.015015136 -0.043751884 0.11207369
-0.013919584 -0.043691773 0.1119197
-0.012839299 -0.043673526 0.11187296
-0.011747515 -0.043609262 0.11170834
-0.010698433 -0.043706525 0.11195749
-0.009572532 -0.043476634 0.1113686
-0.008463392 -0.0432746 0.11085109
-0.0075691123 -0.044271134 0.11340377
-0.0064977263 -0.044392668 0.11371509
-0.0054194918 -0.044507064 0.11400813
-0.0043776934 -0.045054387 0.11541014
-0.0032874637 -0.045305412 0.11605316
-0.002178638 -0.045426238 0.11636266
-0.0010613927 -0.045441128 0.11640081
5.6548131e-05 -0.045426238 0.11636266
0.0011745261 -0.045441128 0.11640081
0.0022926384 -0.045444164 0.11640858
0.0034236212 -0.04561669 0.11685053
0.0045577274 -0.045735382 0.11715455
0.0057014832 -0.045884721 0.1175371
0.0068413303 -0.045958448 0.11772595
0.0077925674 -0.044923924 0.11507595
0.0089216139 -0.04504415 0.11538391
0.010050001 -0.045134842 0.11561622
0.011179728 -0.045212906 0.1158162
0.012273588 -0.045144919 0.11564203
0.013312062 -0.044901393 0.11501823
0.014478404 -0.04509344 0.11551018
0.015716044 -0.045464404 0.11646043
0.017011929 -0.045943376 0.11768734
0.018347148 -0.046462271 0.11901654
0.019570639 -0.04665396 0.11950757
0.020734239 -0.046689548 0.11959872
0.021933286 -0.046797015 0.11987401
0.023110263 -0.046849031 0.12000725
0.024198331 -0.046724435 0.11968809
0.025350763 -0.046729781 0.11970178
0.026497394 -0.046724435 0.11968809
0.027650088 -0.046729781 0.11970178
0.028888837 -0.046874329 0.12007205
0.032329731 -0.050443765 0.12921542
0.033786729 -0.050768275 0.13004668
0.035133537 -0.050909966 0.13040964
0.036478005 -0.051038641 0.13073924
0.038226098 -0.051704686 0.13244538
0.039824713 -0.052132163 0.13354039
0.041521825 -0.052657884 0.13488705
0.043117572 -0.053027123 0.13583289
0.044722695 -0.053385872 0.13675185
0.045726757 -0.053027123 0.13583289
0.047349535 -0.053385872 0.13675185
0.047386061 -0.051985055 0.13316356
0.049006257 -0.052349575 0.13409729
0.050417498 -0.05247793 0.13442609
0.051285047 -0.052048095 0.13332504
0.052414998 -0.051899027 0.13294318
0.053728722 -0.051934678 0.13303451
0.055565231 -0.052462261 0.13438596
0.056284159 -0.051934678 0.13303451
0.064243123 -0.057962779 0.14847593
0.067336194 -0.059434198 0.15224509
0.071400054 -0.061681721 0.15800229
0.074128404 -0.062705979 0.16062599
0.077300362 -0.064056069 0.16408436
0.077213831 -0.062705979 0.16062599
0.080452226 -0.064056069 0.16408436
0.083754212 -0.065403953 0.16753706
0.089914583 -0.068891078 0.17646958
nan nan nan
nan nan nan
nan nan nan
nan nan nan
nan nan nan
nan nan nan
nan nan nan
nan nan nan
nan nan nan
nan nan nan
nan nan nan
nan nan nan
nan nan nan
nan nan nan
nan nan nan
nan nan nan
nan nan nan
nan nan nan
nan nan nan
nan nan nan
nan nan nan
nan nan nan
nan nan nan
nan nan nan
nan nan nan
nan nan nan
nan nan nan
nan nan nan
nan nan nan
-0.095701672 -0.046293754 0.12159164
-0.093447089 -0.045761555 0.12019381
-0.093460716 -0.046340693 0.12171493
-0.091304757 -0.045845129 0.12041332
-0.091122717 -0.046340693 0.12171493
-0.090100788 -0.046416458 0.12191392
-0.090791553 -0.047388144 0.12446608
-0.085787229 -0.045373585 0.11917481
-0.084381975 -0.045233861 0.11880782
-0.082474872 -0.044817597 0.11771449
-0.082227364 -0.045304134 0.11899238
-0.080213726 -0.044817597 0.11771449
-0.079941668 -0.045304134 0.11899238
-0.082073152 -0.047186658 0.12393688
-0.081607394 -0.047609378 0.12504716
-0.079692468 -0.047186658 0.12393688
-0.079205386 -0.047609378 0.12504716
-0.07831981 -0.047801897 0.12555282
-0.075623676 -0.046878088 0.12312642
-0.073919475 -0.046549592 0.12226361
-0.070442468 -0.045076072 0.11839338
-0.068723142 -0.044697393 0.11739877
-0.06626004 -0.043814261 0.11507919
-0.0650407 -0.043737546 0.11487771
-0.063905939 -0.043716043 0.11482123
-0.062834039 -0.043737546 0.11487771
-0.061700355 -0.043716043 0.11482123
-0.061560463 -0.044410691 0.11664574
-0.060329247 -0.0443292 0.11643171
-0.059427388 -0.044491213 0.11685722
-0.058179211 -0.04439519 0.11660502
-0.057182703 -0.044491213 0.11685722
-0.055939369 -0.04439519 0.11660502
-0.054547474 -0.044174928 0.11602651
-0.050874874 -0.042059954 0.11047147
-0.049710855 -0.041972976 0.11024302
-0.048739269 -0.042048234 0.11044069
-0.047845557 -0.042195518 0.11082753
-0.046617836 -0.042048234 0.11044069
-0.045716692 -0.042195518 0.11082753
-0.044622239 -0.042167149 0.11075301
-0.043834642 -0.042434443 0.11145508
-0.045035657 -0.044688404 0.11737516
-0.044242617 -0.045028623 0.11826874
-0.043454099 -0.045391493 0.11922184
-0.04237343 -0.045460563 0.11940326
-0.041163992 -0.045391493 0.11922184
-0.040079836 -0.045460563 0.11940326
-0.038908571 -0.045431986 0.1193282
-0.037798036 -0.045474753 0.11944051
-0.036595527 -0.045406073 0.11926012
-0.035452899 -0.045409642 0.11926951
-0.034523543 -0.045695752 0.12002098
-0.031818241 -0.043569766 0.11443702
-0.030866237 -0.04377839 0.11498499
-0.029940898 -0.044041723 0.11567663
-0.028700028 -0.043843336 0.11515557
-0.027525367 -0.043734245 0.11486904
-0.026102059 -0.043204471 0.11347757
-0.025318872 -0.043734245 0.11486904
-0.023922291 -0.043204471 0.11347757
-0.022647159 -0.042853937 0.11255689
-0.021539114 -0.042800277 0.11241595
-0.020646457 -0.043191537 0.1134436
-0.019621884 -0.043335054 0.11382055
-0.01861155 -0.043528814 0.11432946
-0.017560769 -0.043646336 0.11463813
-0.016487347 -0.043719545 0.11483042
-0.015943499 -0.045308188 0.11900304
-0.014757181 -0.045175433 0.11865435
-0.013617327 -0.045174602 0.11865216
-0.012498774 -0.045250736 0.11885213
-0.01139592 -0.045404729 0.11925659
-0.01018833 -0.045129195 0.1185329
-0.0089736991 -0.044749241 0.11753494
-0.0077908249 -0.044441082 0.11672556
-0.0066811927 -0.044517353 0.11692589
-0.005577927 -0.044675432 0.11734108
-0.0044956892 -0.045124628 0.1185209
-0.0033707067 -0.045303907 0.11899178
-0.0022294377 -0.045335934 0.11907591
-0.0010898812 -0.04550695 0.11952508
5.7866673e-05 -0.045335934 0.11907591
0.0012060511 -0.04550695 0.11952508
0.0023595775 -0.045614436 0.1198074
0.0035367778 -0.045959089 0.12071264
0.0047072275 -0.046067502 0.12099739
0.0058834758 -0.046178494 0.12128892
0.0070482381 -0.046177551 0.12128644
0.0082465792 -0.046365671 0.12178053
0.0094228555 -0.046398398 0.1218665
0.010638354 -0.046595696 0.1223847
0.011844577 -0.046717148 0.12270369
0.012990157 -0.046599071 0.12239356
0.014107705 -0.046408378 0.12189271
0.014756037 -0.044821661 0.11772516
0.016062792 -0.045318432 0.11902993
0.017418403 -0.045877866 0.12049931
0.01878069 -0.046384078 0.12182888
0.020059234 -0.04663622 0.12249114
0.021322956 -0.046827875 0.12299453
0.022587921 -0.047001995 0.12345186
0.02379478 -0.047043864 0.12356183
0.024973392 -0.047028564 0.12352164
0.026197826 -0.047097031 0.12370148
0.027346091 -0.047028564 0.12352164
0.028573984 -0.047097031 0.12370148
0.029908884 -0.047329374 0.12431172
0.031292375 -0.047617812 0.12506932
0.032784261 -0.04804378 0.12618813
0.034160905 -0.048276514 0.1267994
0.038171593 -0.052087542 0.13680917
0.039873395 -0.052599154 0.13815293
0.04148956 -0.052968476 0.13912296
0.042992987 -0.053175319 0.13966624
0.044500977 -0.053375117 0.14019102
0.045994528 -0.053546377 0.14064083
0.047193877 -0.053375117 0.14019102
0.048696067 -0.053546377 0.14064083
0.050238993 -0.053751964 0.14118081
0.051915273 -0.054085676 0.14205731
0.052129634 -0.052918267 0.13899109
0.05303137 -0.052489508 0.13786493
0.054287203 -0.05242357 0.13769175
0.055809148 -0.052611638 0.13818572
0.057976473 -0.053385247 0.14021762
0.058463529 -0.052611638 0.13818572
0.060669884 -0.053385247 0.14021762
0.063512802 -0.054673217 0.14360051
0.073566116 -0.061981391 0.1627956
0.079778619 -0.065816738 0.17286924
0.083913475 -0.0678166 0.17812192
0.088303939 -0.069939002 0.18369645
0.087334991 -0.0678166 0.17812192
0.091832526 -0.069939002 0.18369645
0.097264685 -0.072679766 0.19089513
nan nan nan
nan nan nan
nan nan nan
nan nan nan
nan nan nan
nan nan nan
nan nan nan
nan nan nan
nan nan nan
nan nan nan
nan nan nan
nan nan nan
nan nan nan
nan nan nan
nan nan nan
nan nan nan
nan nan nan
nan nan nan
nan nan nan
nan nan nan
nan nan nan
nan nan nan
nan nan nan
nan nan nan
nan nan nan
nan nan nan
nan nan nan
nan nan nan
nan nan nan
-0.095066182 -0.044820342 0.12078423
-0.09366753 -0.044706464 0.12047735
-0.093457393 -0.045164101 0.12171061
-0.091353312 -0.044706464 0.12047735
-0.091119483 -0.045164101 0.12171061
-0.088734441 -0.044553503 0.12006515
-0.088065296 -0.044799726 0.12072868
-0.086428136 -0.044553503 0.12006515
-0.085746251 -0.044799726 0.12072868
-0.085088618 -0.045065545 0.12144502
-0.08479093 -0.045532037 0.12270215
-0.086332999 -0.047013544 0.12669459
-0.08554896 -0.047252588 0.12733878
-0.0844993 -0.047349729 0.12760057
-0.083521798 -0.047490757 0.12798062
-0.082048252 -0.047349729 0.12760057
-0.081063457 -0.047490757 0.12798062
-0.079256304 -0.047146939 0.12705408
-0.074659266 -0.045106806 0.12155622
-0.072786726 -0.044674065 0.12039004
-0.072324321 -0.045106806 0.12155622
-0.070474178 -0.044674065 0.12039004
-0.068067268 -0.043868054 0.11821795
-0.066716589 -0.043726958 0.11783773
-0.065295085 -0.043533787 0.11731716
-0.066033632 -0.044799265 0.12072743
-0.064549111 -0.044574827 0.12012261
-0.063310787 -0.044515334 0.11996228
-0.062214736 -0.044555519 0.12007058
-0.06144353 -0.044834256 0.12082174
-0.059908323 -0.044555519 0.12007058
-0.059122689 -0.044834256 0.12082174
-0.054490551 -0.042148855 0.11358497
-0.053163283 -0.041962299 0.11308223
-0.05206899 -0.041955691 0.11306442
-0.051050156 -0.042010888 0.11321317
-0.050180051 -0.042193558 0.11370543
-0.048875466 -0.042010888 0.11321317
-0.04799591 -0.042193558 0.11370543
-0.04721985 -0.042477839 0.11447152
-0.04781203 -0.044035841 0.11867012
-0.047396619 -0.044719268 0.12051186
-0.046618618 -0.045086242 0.12150079
-0.045678787 -0.045311522 0.12210789
-0.04480974 -0.045620747 0.1229412
-0.043642037 -0.045634415 0.12297804
-0.042448189 -0.045620747 0.1229412
-0.041279778 -0.045634415 0.12297804
-0.040083602 -0.04561729 0.1229319
-0.038967457 -0.045692977 0.12313585
-0.035454769 -0.042875264 0.11554254
-0.034649123 -0.043254852 0.11656547
-0.033611007 -0.043359894 0.11684855
-0.032593466 -0.043499656 0.11722519
-0.031673077 -0.043783717 0.11799068
-0.030880135 -0.04427157 0.11930537
-0.029763369 -0.044314884 0.1194221
-0.02847678 -0.044098683 0.11883947
-0.027469415 -0.044314884 0.1194221
-0.026194016 -0.044098683 0.11883947
-0.02467378 -0.043431807 0.11704234
-0.023225872 -0.042834654 0.1154331
-0.022074085 -0.042751137 0.11520804
-0.021270907 -0.043369595 0.11687469
-0.021287091 -0.04582065 0.12347992
-0.020169413 -0.04597627 0.1238993
-0.018978847 -0.045974847 0.12389546
-0.017690256 -0.045719892 0.12320839
-0.016532419 -0.045790531 0.12339876
-0.015316891 -0.045699958 0.12315468
-0.014164334 -0.045797829 0.12341841
-0.013026111 -0.045964152 0.12386663
-0.011892174 -0.046180557 0.12444982
-0.010631159 -0.045896702 0.12368486
-0.0093352981 -0.045372069 0.12227106
-0.0080932481 -0.044995625 0.1212566
-0.0069387355 -0.045061111 0.12143308
-0.0057907961 -0.045204367 0.12181913
-0.0046619992 -0.045607448 0.12290537
-0.0034994539 -0.04584175 0.12353679
-0.0023157052 -0.045896202 0.12368353
-0.0011354105 -0.04620593 0.12451819
6.0105816e-05 -0.045896202 0.12368353
0.0012564333 -0.04620593 0.12451819
0.0024631429 -0.046409179 0.12506592
0.0036885545 -0.046716042 0.12589288
0.0048939227 -0.046680212 0.12579632
0.0061057606 -0.046708062 0.12587136
0.0073021227 -0.046627883 0.12565529
0.0085410858 -0.046803895 0.12612963
0.009738165 -0.046735171 0.12594442
0.010979174 -0.04686917 0.12630552
0.012203641 -0.046912912 0.1264234
0.013430737 -0.046957929 0.12654471
0.014657609 -0.046994757 0.12664397
0.01592776 -0.047154073 0.12707329
0.017324727 -0.047639418 0.12838124
0.018699856 -0.048004217 0.12936431
0.020028593 -0.048211884 0.12992394
0.020597115 -0.046672568 0.12577571
0.02194255 -0.046966735 0.12656845
0.023256287 -0.04716574 0.12710474
0.024510868 -0.047230903 0.12728034
0.025798973 -0.047351405 0.12760508
0.027080534 -0.047449511 0.12786946
0.028429303 -0.047651757 0.12841448
0.029536752 -0.047449511 0.12786946
0.030895991 -0.047651757 0.12841448
0.032329731 -0.047948968 0.12921542
0.033786729 -0.048257429 0.13004668
0.035133537 -0.048392117 0.13040964
0.036478005 -0.048514426 0.13073924
0.037908565 -0.048739277 0.1313452
0.043110229 -0.053642035 0.1445574
0.044586729 -0.05374825 0.14484364
0.046119913 -0.053914305 0.14529113
0.047557998 -0.053962704 0.14542156
0.049219228 -0.054254308 0.14620739
0.05035137 -0.053962704 0.14542156
0.052027695 -0.054254308 0.14620739
0.053833555 -0.05466212 0.14730638
0.055715781 -0.055124596 0.14855269
0.057372555 -0.055346489 0.14915065
0.05673071 -0.053394143 0.14388937
0.05878472 -0.054011613 0.14555337
0.061391082 -0.055096116 0.14847593
0.061580624 -0.054011613 0.14555337
0.064243123 -0.055096116 0.14847593
0.067336194 -0.056494765 0.15224509
0.07009808 -0.057561994 0.15512112
0.074128404 -0.059604734 0.16062599
0.091187805 -0.071826935 0.19356304
0.097518481 -0.075278774 0.20286523
0.09490592 -0.071826935 0.19356304
0.10141528 -0.075278774 0.20286523
nan nan nan
nan nan nan
nan nan nan
nan nan nan
nan nan nan
nan nan nan
nan nan nan
nan nan nan
nan nan nan
nan nan nan
nan nan nan
nan nan nan
nan nan nan
nan nan nan
nan nan nan
nan nan nan
nan nan nan
nan nan nan
nan nan nan
nan nan nan
nan nan nan
nan nan nan
nan nan nan
nan nan nan
nan nan nan
nan nan nan
nan nan nan
nan nan nan
nan nan nan
nan nan nan
-0.096028619 -0.044096284 0.12200703
-0.09465012 -0.044000201 0.12174118
-0.094539732 -0.044498589 0.12312014
-0.091304757 -0.043520276 0.12041332
-0.091122717 -0.043990713 0.12171493
-0.090100788 -0.044062633 0.12191392
-0.090791553 -0.044985045 0.12446608
-0.087758973 -0.044062633 0.12191392
-0.089220323 -0.045402132 0.1256201
-0.091186784 -0.047038909 0.13014878
-0.08936584 -0.046740297 0.12932257
-0.088686779 -0.047038909 0.13014878
-0.087090611 -0.046852682 0.12963352
-0.085172713 -0.046485454 0.12861747
-0.084065199 -0.046556216 0.12881325
-0.08270213 -0.046485454 0.12861747
-0.079205386 -0.045195062 0.12504716
-0.077893302 -0.0451307 0.12486909
-0.075623676 -0.044500854 0.12312642
-0.075494714 -0.0451307 0.12486909
-0.073258564 -0.044500854 0.12312642
-0.071570933 -0.044189014 0.12226361
-0.069569327 -0.043669682 0.1208267
-0.070830807 -0.045215759 0.12510444
-0.069807686 -0.045331635 0.12542504
-0.068427697 -0.045215759 0.12510444
-0.066798061 -0.044927835 0.1243078
-0.065156855 -0.044621505 0.12346023
-0.064132005 -0.044733752 0.12377079
-0.063383222 -0.045046434 0.12463593
-0.058092736 -0.042081226 0.11643171
-0.057182703 -0.042235017 0.11685722
-0.055939369 -0.042143866 0.11660502
-0.054472703 -0.0418773 0.11586747
-0.053450197 -0.041948188 0.11606361
-0.052501041 -0.042080894 0.11643079
-0.051836144 -0.042452175 0.11745805
-0.050264549 -0.042080894 0.11643079
-0.051192168 -0.043832641 0.12127758
-0.05053981 -0.044281628 0.12251984
-0.049395483 -0.044310696 0.12260028
-0.048978124 -0.045009244 0.12453303
-0.048231423 -0.045432527 0.12570418
-0.04731134 -0.045710035 0.12647201
-0.046462245 -0.046072561 0.12747505
-0.044881966 -0.045710035 0.12647201
-0.044013601 -0.046072561 0.12747505
-0.042855211 -0.046143547 0.12767147
-0.038908571 -0.043128092 0.1193282
-0.037798036 -0.043168683 0.11944051
-0.036595527 -0.043103486 0.11926012
-0.035588648 -0.043271936 0.1197262
-0.034523543 -0.043378476 0.12002098
-0.033439215 -0.043467395 0.120267
-0.032541052 -0.043813322 0.12122412
-0.031819917 -0.044432115 0.12293623
-0.030855365 -0.044745609 0.12380361
-0.029640213 -0.044706255 0.12369472
-0.028477246 -0.044745609 0.12380361
-0.027264187 -0.044706255 0.12369472
-0.025808351 -0.044247083 0.12242427
-0.025365805 -0.045564242 0.12606862
-0.024122316 -0.045502599 0.12589808
-0.023153814 -0.045980543 0.12722047
-0.022091778 -0.046315655 0.12814766
-0.020891236 -0.046382789 0.1283334
-0.019646572 -0.046354245 0.12825443
-0.018234409 -0.045900244 0.12699829
-0.017068444 -0.046045318 0.12739968
-0.015892796 -0.046184655 0.12778521
-0.014746578 -0.046439998 0.1284917
-0.013596854 -0.04672993 0.12929389
-0.012409543 -0.046935979 0.12986399
-0.011116143 -0.046741992 0.12932727
-0.0097637875 -0.046220109 0.1278833
-0.008487395 -0.045959372 0.12716189
-0.0072814692 -0.046056699 0.12743117
-0.0060691182 -0.046144504 0.12767412
-0.0048739864 -0.04644084 0.12849402
-0.0036509219 -0.046581741 0.12888387
-0.0024091802 -0.046506643 0.12867609
-0.0011793646 -0.046746071 0.12933855
6.2532024e-05 -0.046506643 0.12867609
0.0013050726 -0.046746071 0.12933855
0.0025602791 -0.046984416 0.12999801
0.0038271246 -0.047210075 0.13062237
0.005082258 -0.047215506 0.13063739
0.0063383486 -0.047225922 0.13066621
0.0075912238 -0.047212891 0.13063017
0.0088701602 -0.047342654 0.13098919
0.010106815 -0.047242541 0.1307122
0.011390586 -0.047360461 0.13103846
0.012638453 -0.047320478 0.13092783
0.013945051 -0.047487736 0.1313906
0.015266391 -0.047673263 0.13190393
0.016641667 -0.047985885 0.1327689
0.017952751 -0.048082087 0.13303508
0.019377859 -0.048450597 0.13405469
0.020756302 -0.048663784 0.13464454
0.022236438 -0.049076397 0.13578618
0.023797756 -0.049612544 0.1372696
0.025246019 -0.049869083 0.1379794
0.026473841 -0.049686305 0.13747369
0.026749339 -0.047818474 0.13230571
0.028064737 -0.047894727 0.13251668
0.029491825 -0.048146702 0.13321386
0.030610221 -0.047894727 0.13251668
0.032050703 -0.048146702 0.13321386
0.033711821 -0.048698053 0.13473935
0.03532977 -0.049148586 0.13598591
0.036807038 -0.049378265 0.13662139
0.038171593 -0.049446132 0.13680917
0.039671101 -0.049678471 0.13745201
0.04148956 -0.050282393 0.13912296
0.042992987 -0.050478749 0.13966624
0.044500977 -0.050668415 0.14019102
0.04942492 -0.054622088 0.15113017
0.051216919 -0.054987647 0.1521416
0.052327942 -0.054622088 0.15113017
0.054139372 -0.054987647 0.1521416
0.055981461 -0.055364303 0.15318376
0.058003861 -0.055895429 0.1546533
0.059999164 -0.056374572 0.15597901
0.062974662 -0.057728924 0.15972626
0.065627277 -0.058729909 0.16249582
0.064979851 -0.056799777 0.15715547
0.067921527 -0.058023341 0.16054086
0.067998618 -0.056799777 0.15715547
0.071005322 -0.058023341 0.16054086
0.073566116 -0.058838256 0.1627956
0.079778619 -0.062479109 0.17286924
0.083913475 -0.064377561 0.17812192
0.088303939 -0.066392332 0.18369645
nan nan nan
nan nan nan
nan nan nan
nan nan nan
nan nan nan
nan nan nan
nan nan nan
nan nan nan
nan nan nan
nan nan nan
nan nan nan
nan nan nan
nan nan nan
nan nan nan
nan nan nan
nan nan nan
nan nan nan
nan nan nan
nan nan nan
nan nan nan
nan nan nan
nan nan nan
nan nan nan
nan nan nan
nan nan nan
nan nan nan
nan nan nan
nan nan nan
nan nan nan
nan nan nan
nan nan nan
nan nan nan
-0.095066182 -0.042488329 0.12078423
-0.09366753 -0.042380378 0.12047735
-0.093457393 -0.042814199 0.12171061
-0.091353312 -0.042380378 0.12047735
-0.091648318 -0.043062679 0.12241698
-0.091583818 -0.0435916 0.12392058
-0.089296833 -0.043062679 0.12241698
-0.091423325 -0.044676404 0.12700441
-0.095149964 -0.047126297 0.13396887
-0.094169542 -0.047280069 0.13440602
-0.092576586 -0.047126297 0.13396887
-0.091587767 -0.047280069 0.13440602
-0.0882065 -0.046185534 0.1312945
-0.086079478 -0.045725506 0.12998676
-0.083444297 -0.044978023 0.12786184
-0.082048252 -0.044886112 0.12760057
-0.081063457 -0.045019805 0.12798062
-0.079256304 -0.044693876 0.12705408
-0.07711599 -0.044166941 0.12555614
-0.076815747 -0.044693876 0.12705408
-0.074704215 -0.044166941 0.12555614
-0.075636826 -0.045452021 0.12920931
-0.075015664 -0.045830701 0.1302858
-0.073643133 -0.045755386 0.1300717
-0.072513029 -0.045830701 0.1302858
-0.071144611 -0.045755386 0.1300717
-0.069464296 -0.045473203 0.12926953
-0.067144848 -0.044754751 0.12722713
-0.062214736 -0.042237286 0.12007058
-0.06144353 -0.04250152 0.12082174
-0.059908323 -0.042237286 0.12007058
-0.059122689 -0.04250152 0.12082174
-0.057947654 -0.042490803 0.12079127
-0.056102358 -0.041978132 0.11933386
-0.055047795 -0.042048071 0.11953269
-0.05414125 -0.04223647 0.12006825
-0.054076809 -0.043104298 0.12253529
-0.053343136 -0.043465432 0.1235619
-0.052843299 -0.044037875 0.12518921
-0.052224811 -0.04453579 0.12660468
-0.051222295 -0.044722144 0.12713444
-0.050403439 -0.045081872 0.12815706
-0.04974471 -0.045606427 0.12964824
-0.048944682 -0.046025034 0.13083825
-0.048190847 -0.046510279 0.13221769
-0.046431441 -0.046025034 0.13083825
-0.042448189 -0.043247089 0.1229412
-0.041279778 -0.043260045 0.12297804
-0.040083602 -0.043243814 0.1229319
-0.038967457 -0.043315556 0.12313585
-0.037727829 -0.043250233 0.12295014
-0.036603395 -0.043317012 0.12313998
-0.035439361 -0.043339819 0.12320482
-0.03425815 -0.043342471 0.12321236
-0.033315964 -0.043658547 0.12411088
-0.032619439 -0.044331942 0.12602518
-0.031778257 -0.044853065 0.12750661
-0.030198649 -0.044331942 0.12602518
-0.030484848 -0.046620693 0.13253157
-0.029411059 -0.046938442 0.13343485
-0.028195545 -0.047048647 0.13374814
-0.026747515 -0.046762872 0.13293575
-0.0254218 -0.046673007 0.13268028
-0.024289181 -0.046946879 0.13345884
-0.023084497 -0.047104217 0.13390611
-0.021730511 -0.046957497 0.13348901
-0.020410476 -0.04687034 0.13324125
-0.018856205 -0.046197645 0.13132894
-0.017580584 -0.046160135 0.13122231
-0.016396789 -0.046376552 0.13183753
-0.015199289 -0.046587184 0.13243631
-0.014000101 -0.046830643 0.1331284
-0.012778779 -0.047041565 0.133728
-0.011458605 -0.046895061 0.13331152
-0.010082694 -0.046454899 0.13206024
-0.0088063637 -0.046412885 0.13194081
-0.00755955 -0.046538461 0.1322978
-0.0062986212 -0.046610326 0.13250209
-0.0050609219 -0.046934016 0.13342226
-0.003790068 -0.047065474 0.13379596
-0.0024989981 -0.046951979 0.13347334
-0.0012243537 -0.047233071 0.13427241
6.4863314e-05 -0.046951979 0.13347334
0.0013548569 -0.047233071 0.13427241
0.00265308 -0.047386993 0.13470997
0.0039587165 -0.047529012 0.1351137
0.0052657221 -0.047613285 0.13535327
0.0065646409 -0.047605544 0.13533126
0.0078635616 -0.047600374 0.13531657
0.0091746477 -0.047659863 0.13548568
0.010444522 -0.047517087 0.1350798
0.011764492 -0.047608584 0.1353399
0.013086666 -0.047689907 0.13557109
0.014470799 -0.047961868 0.13634421
0.015912192 -0.048362724 0.13748375
0.01738737 -0.04879697 0.1387182
0.018807014 -0.049024642 0.13936542
0.020305758 -0.049414545 0.14047383
0.021715716 -0.049553268 0.14086817
0.023233043 -0.049906351 0.14187191
0.02476964 -0.050259419 0.1428756
0.026219951 -0.050409529 0.14330232
0.027446119 -0.050135229 0.14252256
0.028888537 -0.050263237 0.14288646
0.03038311 -0.050466269 0.14346363
0.03210732 -0.051016569 0.145028
0.032632522 -0.049695168 0.14127156
0.033541162 -0.049039878 0.13940872
0.03534618 -0.049695168 0.14127156
0.037083484 -0.050210327 0.14273603
0.038497347 -0.050266434 0.14289553
0.039815858 -0.050198458 0.1427023
0.041361026 -0.050411265 0.14330725
0.042878211 -0.05057735 0.1437794
0.044586729 -0.050951719 0.14484364
0.046119913 -0.051109135 0.14529113
0.047557998 -0.051155012 0.14542156
0.049219228 -0.051431447 0.14620739
0.055389754 -0.056273811 0.15997308
0.056500711 -0.055853199 0.15877739
0.058462642 -0.056273811 0.15997308
0.060566198 -0.056805711 0.16148515
0.062810846 -0.05744008 0.1632885
0.06668181 -0.059494559 0.16912891
0.06931448 -0.060372777 0.17162548
0.07156413 -0.060884342 0.17307973
0.073674366 -0.061256755 0.17413841
0.071390912 -0.058040574 0.16499558
0.073939413 -0.058807142 0.16717476
0.077045314 -0.059975032 0.17049478
0.082538784 -0.062914193 0.17885011
0.091187805 -0.068089768 0.19356304
0.097518481 -0.071361996 0.20286523
nan nan nan
0.10141528 -0.071361996 0.20286523
nan nan nan
nan nan nan
nan nan nan
nan nan nan
nan nan nan
nan nan nan
nan nan nan
nan nan nan
nan nan nan
nan nan nan
nan nan nan
nan nan nan
nan nan nan
nan nan nan
nan nan nan
nan nan nan
nan nan nan
nan nan nan
nan nan nan
nan nan nan
nan nan nan
nan nan nan
nan nan nan
nan nan nan
nan nan nan
nan nan nan
nan nan nan
nan nan nan
nan nan nan
nan nan nan
-0.096028619 -0.041740667 0.12200703
-0.09465012 -0.04164971 0.12174118
-0.092871755 -0.041378323 0.12094792
-0.092311628 -0.04164971 0.12174118
-0.093216494 -0.042597529 0.12451163
-0.09572006 -0.044310044 0.12951727
-0.092270382 -0.043275531 0.12649342
-0.093232192 -0.044310044 0.12951727
-0.097589016 -0.047007889 0.13740301
-0.096176043 -0.046962328 0.13726984
-0.09494967 -0.047007889 0.13740301
-0.093539253 -0.046962328 0.13726984
-0.086967856 -0.044287302 0.1294508
-0.085172713 -0.044002205 0.12861747
-0.084481262 -0.044287302 0.1294508
-0.08270213 -0.044002205 0.12861747
-0.081256017 -0.043888338 0.12828463
-0.079884276 -0.04381175 0.12806077
-0.078051202 -0.043475796 0.12707879
-0.078671344 -0.044517361 0.13012326
-0.077275433 -0.044433322 0.12987761
-0.077907987 -0.045532025 0.1330891
-0.077623934 -0.046122756 0.13481578
-0.075351499 -0.045532025 0.1330891
-0.075034276 -0.046122756 0.13481578
-0.073534049 -0.045994274 0.13444024
-0.066166334 -0.042125594 0.12313218
-0.065156855 -0.042237826 0.12346023
-0.064132005 -0.042344071 0.12377079
-0.062785327 -0.042237826 0.12346023
-0.061754521 -0.042344071 0.12377079
-0.060989119 -0.042640053 0.12463593
-0.059084807 -0.042135675 0.12316165
-0.057513122 -0.04185275 0.12233466
-0.058401901 -0.04338586 0.12681592
-0.057734068 -0.043803271 0.12803599
-0.055965923 -0.04338586 0.12681592
-0.05527465 -0.043803271 0.12803599
-0.054577861 -0.0442352 0.12929851
-0.053840864 -0.044653896 0.13052236
-0.053133775 -0.045117948 0.13187876
-0.052321833 -0.045513455 0.13303483
-0.051806685 -0.046193406 0.1350223
-0.051005293 -0.046646483 0.13634664
-0.045816794 -0.043005522 0.12570418
-0.044881966 -0.043268207 0.12647201
-0.044013601 -0.043611363 0.12747505
-0.042855211 -0.043678559 0.12767147
-0.041652627 -0.043703347 0.12774391
-0.040505137 -0.043789204 0.12799487
-0.039298888 -0.043814916 0.12807003
-0.038138006 -0.043894507 0.12830266
-0.036958382 -0.043957125 0.12848569
-0.035766117 -0.044008508 0.1286359
-0.034727644 -0.044259578 0.12936977
-0.03546745 -0.046879753 0.13702847
-0.034417573 -0.04724516 0.13809656
-0.032835301 -0.046879753 0.13702847
-0.031764902 -0.04724516 0.13809656
-0.0306757 -0.047613222 0.13917239
-0.029577207 -0.04799974 0.14030218
-0.028216124 -0.047976676 0.14023477
-0.026869092 -0.04797639 0.14023392
-0.025601355 -0.048125133 0.14066869
-0.024198918 -0.048023123 0.14037053
-0.022602279 -0.047500949 0.13884422
-0.020902107 -0.046682067 0.13645065
-0.019464983 -0.046380419 0.13556893
-0.018138368 -0.046317708 0.13538563
-0.016952468 -0.046632394 0.13630545
-0.015705567 -0.046817899 0.13684767
-0.014463102 -0.04705172 0.13753113
-0.013188722 -0.047218286 0.138018
-0.011854232 -0.047182817 0.13791433
-0.010474107 -0.046933942 0.13718687
-0.0091782892 -0.047045577 0.13751318
-0.0078540016 -0.04702428 0.13745092
-0.0065417667 -0.04708112 0.13761707
-0.0052421624 -0.047280669 0.13820034
-0.0039159106 -0.0472937 0.13823843
-0.0025792001 -0.047128987 0.13775699
-0.0012643872 -0.047438882 0.1386628
6.6945016e-05 -0.047128987 0.13775699
0.0013991576 -0.047438882 0.1386628
0.0027316983 -0.04745223 0.13870181
0.0040758997 -0.047592986 0.13911325
0.0054284162 -0.04773736 0.13953525
0.0067730611 -0.047769051 0.13962787
0.0081171775 -0.04778716 0.1396808
0.0094694095 -0.047841124 0.13983855
0.010775796 -0.047678836 0.13936418
0.012153319 -0.047832385 0.13981301
0.013559996 -0.048058711 0.14047454
0.015026709 -0.048437592 0.14158201
0.01657678 -0.048999995 0.14322589
0.018129241 -0.049482729 0.14463691
0.019652374 -0.049822405 0.14562978
0.021215145 -0.050210748 0.1467649
0.022790778 -0.05057925 0.14784202
0.024350032 -0.050870311 0.14869279
0.025809007 -0.05093123 0.14887086
0.027241953 -0.050937083 0.14888796
0.028512901 -0.050654553 0.14806214
0.029996607 -0.050758895 0.14836712
0.03151077 -0.050902966 0.14878824
0.033287004 -0.051439524 0.15035659
0.035114981 -0.052008104 0.15201853
0.036175173 -0.051439524 0.15035659
0.036829993 -0.050360311 0.14720207
0.038657449 -0.050905041 0.14879431
0.040104646 -0.050928045 0.14886154
0.041429639 -0.050799627 0.14848618
0.042890675 -0.050841015 0.14860716
0.044381149 -0.050913513 0.14881906
0.046185307 -0.051330101 0.15003675
0.047860205 -0.051582184 0.15077357
0.04942492 -0.051704179 0.15113017
0.051216919 -0.052050211 0.1521416
0.053038988 -0.052406747 0.15318376
0.054139372 -0.052050211 0.1521416
0.061012857 -0.057116859 0.16695131
0.063290246 -0.057731595 0.16874817
0.065853097 -0.058569517 0.1711974
0.068819053 -0.059716407 0.17454973
0.073157988 -0.061971791 0.18114217
0.075269341 -0.06227925 0.18204087
0.077110834 -0.062354531 0.18226092
0.08027336 -0.063470997 0.18552431
0.08061184 -0.062354531 0.18226092
0.080280334 -0.060778283 0.17765358
0.086272158 -0.06395527 0.18693984
0.097847797 -0.071057707 0.2077001
nan nan nan
nan nan nan
nan nan nan
nan nan nan
nan nan nan
nan nan nan
nan nan nan
nan nan nan
nan nan nan
nan nan nan
nan nan nan
nan nan nan
nan nan nan
nan nan nan
nan nan nan
nan nan nan
nan nan nan
nan nan nan
nan nan nan
nan nan nan
nan nan nan
nan nan nan
nan nan nan
nan nan nan
nan nan nan
nan nan nan
nan nan nan
nan nan nan
nan nan nan
nan nan nan
nan nan nan
nan nan nan
nan nan nan
-0.097090863 -0.04101155 0.12335665
-0.096148483 -0.041115195 0.1236684
-0.09472134 -0.04101155 0.12335665
-0.095647112 -0.041936927 0.12614004
-0.097094089 -0.043117497 0.12969103
-0.09815979 -0.044157244 0.13281843
-0.094602875 -0.043117497 0.12969103
-0.09560851 -0.044157244 0.13281843
-0.099343367 -0.046502657 0.13987309
-0.09748669 -0.046259101 0.1391405
-0.092576586 -0.044539724 0.13396887
-0.091587767 -0.044685058 0.13440602
-0.0882065 -0.043650597 0.1312945
-0.086079478 -0.043215819 0.12998676
-0.085684486 -0.043650597 0.1312945
-0.083582595 -0.043215819 0.12998676
-0.082095996 -0.043090813 0.12961076
-0.082201265 -0.043810368 0.13177508
-0.080196925 -0.043410506 0.13057235
-0.079670019 -0.043810368 0.13177508
-0.078810886 -0.044037506 0.13245827
-0.080021411 -0.045447536 0.13669944
-0.079927117 -0.046151187 0.13881591
-0.077395588 -0.045447536 0.13669944
-0.072513029 -0.043315239 0.1302858
-0.071144611 -0.04324406 0.1300717
-0.068511307 -0.042387754 0.12749606
-0.067144848 -0.042298343 0.12722713
-0.065992221 -0.042342816 0.1273609
-0.064700976 -0.042298343 0.12722713
-0.063545778 -0.042342816 0.1273609
-0.062480479 -0.042450115 0.12768364
-0.06260585 -0.043386862 0.13050123
-0.061207883 -0.043284617 0.1301937
-0.060428377 -0.043624587 0.13121627
-0.058707021 -0.043284617 0.1301937
-0.057907872 -0.043624587 0.13121627
-0.05741071 -0.044212244 0.13298386
-0.056645256 -0.044615336 0.1341963
-0.056136452 -0.045244049 0.13608737
-0.055184055 -0.045536686 0.13696758
-0.054258395 -0.045866221 0.13795878
-0.04974471 -0.04310327 0.12964824
-0.048944682 -0.043498907 0.13083825
-0.047254328 -0.04310327 0.12964824
-0.046431441 -0.043498907 0.13083825
-0.045651101 -0.04395752 0.13221769
-0.044464346 -0.044039845 0.1324653
-0.043202166 -0.044050109 0.13249618
-0.042054228 -0.044181019 0.13288994
-0.040906653 -0.044320516 0.13330953
-0.039863255 -0.044585545 0.1341067
-0.038715374 -0.044747513 0.13459387
-0.039203733 -0.046877176 0.14099957
-0.038046256 -0.047120836 0.14173247
-0.037050873 -0.047590792 0.14314602
-0.035323747 -0.047120836 0.14173247
-0.03430121 -0.047590792 0.14314602
-0.033135328 -0.047892794 0.14405441
-0.032032054 -0.048315559 0.14532602
-0.030984817 -0.048865218 0.14697932
-0.029670939 -0.049026765 0.14746523
-0.028307006 -0.049117662 0.14773862
-0.026847947 -0.049044374 0.14751819
-0.025176685 -0.048553679 0.14604226
-0.02334347 -0.047674332 0.1433973
-0.021473814 -0.046605632 0.14018281
-0.020076314 -0.046487235 0.1398267
-0.018807078 -0.046670165 0.14037691
-0.017649742 -0.047180466 0.14191183
-0.016398979 -0.047505539 0.1428896
-0.015077326 -0.047665868 0.14337185
-0.012778779 -0.044459641 0.133728
-0.011458605 -0.044321183 0.13331152
-0.010082694 -0.043905176 0.13206024
-0.0088063637 -0.043865468 0.13194081
-0.00755955 -0.043984152 0.1322978
-0.0062986212 -0.044052076 0.13250209
-0.0050609219 -0.044357993 0.13342226
-0.003790068 -0.044482239 0.13379596
-0.0024989981 -0.044374976 0.13347334
-0.0012243537 -0.044640642 0.13427241
6.4863314e-05 -0.044374976 0.13347334
0.0013548569 -0.044640642 0.13427241
0.00265308 -0.044786111 0.13470997
0.0039587165 -0.044920336 0.1351137
0.0052657221 -0.044999987 0.13535327
0.0065646409 -0.044992667 0.13533126
0.0078635616 -0.044987783 0.13531657
0.0091746477 -0.045044005 0.13548568
0.010444522 -0.044909067 0.1350798
0.011764492 -0.044995539 0.1353399
0.013987284 -0.048174262 0.14490102
0.015508266 -0.048579279 0.14611925
0.017121876 -0.049183145 0.1479356
0.018712692 -0.049634017 0.14929175
0.020317748 -0.050055794 0.15056039
0.021962062 -0.050511807 0.15193202
0.023649987 -0.051005065 0.15341565
0.025211452 -0.051183719 0.15395302
0.026660956 -0.051127873 0.15378505
0.028202774 -0.05124563 0.15413924
0.029667486 -0.051218513 0.15405768
0.031292427 -0.051457468 0.15477641
0.032898251 -0.051644735 0.15533969
0.034645021 -0.052027415 0.15649073
0.036397781 -0.052386891 0.15757199
0.038363036 -0.053011298 0.15945011
0.03942455 -0.052386891 0.15757199
0.04142588 -0.053011298 0.15945011
0.043274406 -0.053402621 0.16062716
0.043035686 -0.051279914 0.15424235
0.044510592 -0.051272418 0.15421982
0.046031937 -0.051317189 0.15435448
0.047601838 -0.051411606 0.15463847
0.049696136 -0.052049536 0.15655728
0.051455807 -0.052309822 0.15734017
0.053450786 -0.052787643 0.15877739
0.055389754 -0.053185169 0.15997308
0.057464264 -0.053687874 0.16148515
0.058462642 -0.053185169 0.15997308
0.060566198 -0.053687874 0.16148515
0.07003475 -0.060531046 0.18206839
0.073027112 -0.061579794 0.18522286
0.077054083 -0.063430347 0.19078906
0.079087421 -0.063591897 0.19127499
0.080868937 -0.063548245 0.19114366
0.084020555 -0.064559266 0.19418466
0.084540583 -0.063548245 0.19114366
0.087750599 -0.064559266 0.19418466
0.092120111 -0.066363491 0.19961153
0.096544676 -0.068133011 0.20493399
nan nan nan
nan nan nan
nan nan nan
nan nan nan
nan nan nan
nan nan nan
nan nan nan
nan nan nan
nan nan nan
nan nan nan
nan nan nan
nan nan nan
nan nan nan
nan nan nan
nan nan nan
nan nan nan
nan nan nan
nan nan nan
nan nan nan
nan nan nan
nan nan nan
nan nan nan
nan nan nan
nan nan nan
nan nan nan
nan nan nan
nan nan nan
nan nan nan
nan nan nan
nan nan nan
nan nan nan
nan nan nan
nan nan nan
-0.10278479 -0.042156007 0.13059093
-0.101227 -0.042029977 0.13020052
-0.1002763 -0.042156007 0.13059093
-0.098726012 -0.042029977 0.13020052
-0.10047305 -0.04332247 0.1342044
-0.097171165 -0.042443246 0.13148074
-0.097895145 -0.04332247 0.1342044
-0.10172103 -0.045616191 0.14130989
-0.097589016 -0.044355012 0.13740301
-0.094742753 -0.043651652 0.13522413
-0.09494967 -0.044355012 0.13740301
-0.091831885 -0.043503199 0.13476425
-0.088437602 -0.04249417 0.1316385
-0.089243226 -0.043503199 0.13476425
-0.085908987 -0.04249417 0.1316385
-0.08554244 -0.042944875 0.13303469
-0.085230649 -0.043437149 0.13455966
-0.084863015 -0.043915685 0.13604207
-0.082645915 -0.043437149 0.13455966
-0.082249805 -0.043915685 0.13604207
-0.082220398 -0.044608627 0.13818866
-0.082561597 -0.045528684 0.14103881
-0.077623934 -0.043519828 0.13481578
-0.075351499 -0.042962439 0.1330891
-0.075034276 -0.043519828 0.13481578
-0.073439993 -0.043343093 0.13426828
-0.071010396 -0.042658236 0.13214675
-0.069407523 -0.042454135 0.13151447
-0.06847202 -0.042658236 0.13214675
-0.066881292 -0.042454135 0.13151447
-0.065606646 -0.042446673 0.13149136
-0.066869587 -0.044112939 0.13665311
-0.064611316 -0.043476511 0.1346816
-0.063154154 -0.043364163 0.13433355
-0.06253773 -0.043836445 0.13579659
-0.060573768 -0.043364163 0.13433355
-0.05992924 -0.043836445 0.13579659
-0.059959996 -0.044834685 0.13888894
-0.059376743 -0.045408778 0.14066736
-0.058981929 -0.04615707 0.14298543
-0.053133775 -0.042571735 0.13187876
-0.052321833 -0.042944919 0.13303483
-0.051806685 -0.043586496 0.1350223
-0.049766392 -0.042944919 0.13303483
-0.04921307 -0.043586496 0.1350223
-0.048386239 -0.044014007 0.13634664
-0.047485478 -0.044396177 0.13753054
-0.046174224 -0.044405453 0.13755926
-0.044708751 -0.044262592 0.13711672
-0.043433402 -0.044304997 0.13724808
-0.042395186 -0.044599522 0.13816045
-0.042965367 -0.046659779 0.14454272
-0.041972078 -0.047103021 0.14591579
-0.040989358 -0.047589149 0.14742172
-0.039840128 -0.04790983 0.14841513
-0.038157564 -0.047589149 0.14742172
-0.036989253 -0.04790983 0.14841513
-0.035943057 -0.048420727 0.14999779
-0.034695111 -0.04869115 0.15083551
-0.033395391 -0.048909314 0.15151134
-0.03212956 -0.049199253 0.15240951
-0.03073089 -0.049303748 0.15273321
-0.029326815 -0.049409609 0.15306115
-0.027804887 -0.049317617 0.15277617
-0.026095971 -0.048865225 0.15137476
-0.02399491 -0.047581829 0.14739905
-0.022413639 -0.047232877 0.14631806
-0.019464983 -0.043762952 0.13556893
-0.018138368 -0.043703783 0.13538563
-0.016952468 -0.044000708 0.13630545
-0.015705567 -0.044175744 0.13684767
-0.014463102 -0.044396371 0.13753113
-0.013188722 -0.044553533 0.138018
-0.011854232 -0.044520069 0.13791433
-0.010474107 -0.044285242 0.13718687
-0.0091782892 -0.044390578 0.13751318
-0.0078540016 -0.04437048 0.13745092
-0.0065417667 -0.044424109 0.13761707
-0.0052421624 -0.0446124 0.13820034
-0.0039159106 -0.044624694 0.13823843
-0.0025792001 -0.044469278 0.13775699
-0.0012643872 -0.044761684 0.1386628
6.6945016e-05 -0.044469278 0.13775699
0.0013991576 -0.044761684 0.1386628
0.0027316983 -0.044774275 0.13870181
0.0040758997 -0.044907093 0.13911325
0.0054284162 -0.045043319 0.13953525
0.0067730611 -0.045073219 0.13962787
0.0081171775 -0.045090307 0.1396808
0.0094694095 -0.045141228 0.13983855
0.010775796 -0.044988096 0.13936418
0.012153319 -0.04513298 0.13981301
0.013559996 -0.045346532 0.14047454
0.015026709 -0.045704033 0.14158201
0.01657678 -0.046234693 0.14322589
0.018129241 -0.046690188 0.14463691
0.021209193 -0.050734777 0.15716626
0.022961328 -0.05127665 0.15884487
0.024699049 -0.05172082 0.16022083
0.026202945 -0.051651973 0.16000754
