# .PCD v0.7 - Point Cloud Data file format
VERSION 0.7
FIELDS x y z
SIZE 4 4 4
TYPE F F F
COUNT 1 1 1
WIDTH 1537
HEIGHT 1
VIEWPOINT 0 0 0 1 0 0 0
POINTS 1537
DATA ascii
0.3355523 0.17185844 0.62331843
0.34550953 0.17385641 0.63056493
0.35026905 0.17321518 0.62823921
0.35244504 0.17133969 0.62143695
0.35775074 0.17102282 0.62028772
0.36438209 0.17133969 0.62143695
0.36966571 0.17102282 0.62028772
0.37361297 0.17010756 0.6169681
0.37502313 0.16808374 0.6096279
0.37852988 0.16704741 0.60586917
0.38673335 0.16808374 0.6096279
0.3867878 0.16560024 0.60062039
0.39065394 0.16479769 0.5977096
0.3951084 0.164263 0.59577024
0.40213522 0.16479769 0.5977096
0.40655243 0.164263 0.59577024
0.41250256 0.16435386 0.59609985
0.41779 0.16418184 0.59547597
0.42395291 0.16435386 0.59609985
0.42922837 0.16418184 0.59547597
0.43938592 0.16585723 0.60155243
0.44281641 0.16498275 0.5983808
0.45094103 0.16585723 0.60155243
0.45431057 0.16498275 0.5983808
0.45687023 0.16383971 0.59423506
0.4627932 0.1639161 0.5945121
0.46828482 0.16383971 0.59423506
-0.20329902 0.073709957 0.25829706
-0.20138197 0.073916875 0.25902215
-0.20002669 0.074337751 0.26049697
-0.19895427 0.074875735 0.26238221
-0.19502285 0.074337751 0.26049697
-0.19513698 0.075347878 0.26403672
-0.19338791 0.075655699 0.26511538
-0.19017081 0.075389765 0.26418349
-0.18830955 0.075661406 0.26513538
-0.18759328 0.076406837 0.26774755
-0.18631814 0.076942205 0.26962361
-0.18245018 0.076406837 0.26774755
-0.18113899 0.076942205 0.26962361
-0.18095635 0.077979431 0.27325827
-0.17904744 0.078292318 0.27435473
-0.17691663 0.078516088 0.27513885
-0.17416003 0.078464702 0.27495879
-0.17210494 0.078732654 0.27589774
-0.17230524 0.080056883 0.28053817
-0.17096902 0.080697946 0.28278461
-0.16906646 0.081088088 0.28415173
-0.16553707 0.080697946 0.28278461
-0.16360825 0.081088088 0.28415173
-0.16181333 0.081558935 0.28580174
-0.15985328 0.081961378 0.28721198
-0.15831515 0.082598083 0.28944314
-0.15323587 0.081377 0.28516418
-0.15211332 0.08225096 0.28822672
-0.15087366 0.083092824 0.2911768
-0.15102543 0.08474727 0.29697439
-0.14975986 0.085654773 0.30015451
-0.14800173 0.086310655 0.30245286
-0.14399427 0.085654773 0.30015451
-0.14219199 0.086310655 0.30245286
-0.14040999 0.087006465 0.30489114
-0.1383366 0.087547496 0.30678704
-0.13623337 0.088092782 0.30869785
-0.13433333 0.088796638 0.31116432
-0.13271503 0.089723013 0.31441057
-0.13134196 0.090862162 0.31840241
-0.12667559 0.089723013 0.31441057
-0.12522584 0.090862162 0.31840241
-0.12405822 0.092268184 0.32332945
-0.12221888 0.093233973 0.3267138
-0.12040439 0.094270118 0.33034471
-0.11912912 0.095795974 0.33569163
-0.11672892 0.096476935 0.3380779
-0.11477554 0.09757673 0.34193185
-0.11226568 0.098254308 0.34430623
-0.10924458 0.098511979 0.34520915
-0.10661335 0.09914837 0.34743923
-0.10397134 0.099815525 0.3497771
-0.099939466 0.09914837 0.34743923
-0.097252555 0.099815525 0.3497771
-0.094810367 0.10079059 0.35319397
-0.092210442 0.10166412 0.35625499
-0.089583941 0.10257452 0.35944527
-0.086988382 0.10359477 0.36302045
-0.084191248 0.10445012 0.36601782
-0.081673779 0.1057421 0.37054524
-0.079250805 0.10727973 0.37593347
-0.077506661 0.10992692 0.38520983
-0.074902125 0.11155806 0.39092571
-0.071877539 0.11270272 0.39493686
-0.068858482 0.11398407 0.39942703
-0.06583678 0.11541197 0.40443075
-0.062770575 0.11693604 0.40977144
-0.059410792 0.11808051 0.41378191
-0.05611698 0.11952958 0.41885978
-0.052689336 0.12089539 0.42364591
-0.049161274 0.12224008 0.42835802
-0.045507662 0.12348973 0.43273708
-0.042015798 0.1254736 0.43968904
-0.038404897 0.1275056 0.44680968
-0.034537446 0.12908995 0.45236158
-0.030444084 0.13016438 0.45612666
-0.026228448 0.13098936 0.45901754
-0.021773148 0.1307089 0.45803478
nan nan nan
nan nan nan
nan nan nan
nan nan nan
nan nan nan
nan nan nan
nan nan nan
nan nan nan
nan nan nan
nan nan nan
nan nan nan
nan nan nan
nan nan nan
nan nan nan
nan nan nan
nan nan nan
nan nan nan
nan nan nan
nan nan nan
nan nan nan
nan nan nan
nan nan nan
nan nan nan
nan nan nan
nan nan nan
nan nan nan
nan nan nan
nan nan nan
nan nan nan
nan nan nan
0.11054994 0.1260891 0.44184586
0.11566801 0.12704954 0.44521147
0.12097492 0.12814154 0.44903809
0.12641844 0.12929808 0.45309091
0.12960039 0.12814154 0.44903809
0.13512178 0.12929808 0.45309091
nan nan nan
nan nan nan
nan nan nan
nan nan nan
nan nan nan
nan nan nan
nan nan nan
nan nan nan
nan nan nan
nan nan nan
nan nan nan
nan nan nan
nan nan nan
nan nan nan
0.28293404 0.18255201 0.63970524
0.28997818 0.18312046 0.64169723
0.29527727 0.18258619 0.63982499
0.30230442 0.18312046 0.64169723
0.30756754 0.18258619 0.63982499
0.31231269 0.18177137 0.63696969
0.31317762 0.1787729 0.62646234
0.31699955 0.17754361 0.62215465
0.32198143 0.17699745 0.62024075
0.33316156 0.1798165 0.63011932
0.33857051 0.17947565 0.62892497
0.34303895 0.17865695 0.62605602
0.34371284 0.17592426 0.61648005
0.34805781 0.17513129 0.61370128
0.35261768 0.17447107 0.61138773
0.35984626 0.17513129 0.61370128
0.3643617 0.17447107 0.61138773
0.36653844 0.17272967 0.60528547
0.37153399 0.17235029 0.60395604
0.37364843 0.17066662 0.59805602
0.38059112 0.17120585 0.5999456
0.3851364 0.17066662 0.59805602
0.38991722 0.17024609 0.59658241
0.39462209 0.16980506 0.59503692
0.40137684 0.17024609 0.59658241
0.40605202 0.16980506 0.59503692
0.41194558 0.16987872 0.59529501
0.41734323 0.16974863 0.59483916
0.42556825 0.17075653 0.59837109
0.43102777 0.17064272 0.59797227
0.43396208 0.16954534 0.59412676
0.43801638 0.16890831 0.59189451
0.44537452 0.16954534 0.59412676
0.44861779 0.16861957 0.59088272
0.45600948 0.16925673 0.59311545
0.45996794 0.16861957 0.59088272
0.46740249 0.16925673 0.59311545
-0.20271634 0.075985052 0.25755674
-0.20135731 0.076408029 0.25899044
-0.20057619 0.077063613 0.26121259
-0.1993725 0.0775714 0.26293379
-0.19555859 0.077063613 0.26121259
-0.19432187 0.0775714 0.26293379
-0.19347855 0.07825169 0.26523966
-0.19155134 0.078505889 0.2661013
-0.18838362 0.07825169 0.26523966
-0.18580917 0.07824032 0.26520112
-0.18608454 0.079445317 0.26928556
-0.18470171 0.079966374 0.2710517
-0.1809119 0.079445317 0.26928556
-0.17949513 0.079966374 0.2710517
-0.17869271 0.080780484 0.27381119
-0.17673655 0.081089549 0.2748588
-0.17343314 0.080780484 0.27381119
-0.17145686 0.081089549 0.2748588
-0.17175446 0.082500532 0.27964142
-0.170222 0.083063319 0.28154904
-0.16829719 0.083449736 0.28285882
-0.16481379 0.083063319 0.28154904
-0.16286381 0.083449736 0.28285882
-0.16115822 0.083976597 0.28464466
-0.15932426 0.084453605 0.2862615
-0.15790562 0.085171379 0.28869444
-0.15382552 0.084453605 0.2862615
-0.15236016 0.085171379 0.28869444
-0.15110028 0.086032763 0.29161415
-0.15141875 0.087842315 0.29774779
-0.15009299 0.088749334 0.30082217
-0.14838172 0.089459516 0.30322939
-0.14651905 0.090105027 0.30541739
-0.14255705 0.089459516 0.30322939
-0.14065234 0.090105027 0.30541739
-0.13854846 0.090647727 0.30725691
-0.13677812 0.091437012 0.30993223
-0.13460986 0.09198948 0.31180489
-0.132562 0.092651248 0.31404799
-0.13104141 0.09372095 0.3176738
-0.1299042 0.09512236 0.32242399
-0.12493929 0.09372095 0.3176738
-0.12371081 0.09512236 0.32242399
-0.12206662 0.096267872 0.32630679
-0.12025461 0.097337909 0.32993376
-0.11811113 0.098190315 0.33282304
-0.1167825 0.099786393 0.33823308
-0.11468464 0.10079772 0.34166104
-0.11205404 0.10138661 0.34365714
-0.10960136 0.10217711 0.3463366
-0.10677699 0.10265974 0.34797248
-0.1038058 0.10302784 0.34922016
-0.099682197 0.10223854 0.3465448
-0.097097695 0.10302784 0.34922016
-0.094661452 0.10403653 0.35263923
-0.092161074 0.10504699 0.35606423
-0.089715838 0.1062006 0.35997447
-0.08718542 0.10734183 0.36384276
-0.084568873 0.10846787 0.36765954
-0.082055017 0.1098295 0.37227488
-0.079448402 0.11118539 0.37687078
-0.076598823 0.11231446 0.38069785
-0.074971884 0.11543933 0.3912898
-0.072050087 0.11679499 0.39588493
-0.068942204 0.11798326 0.39991266
-0.065752491 0.11916345 0.40391299
-0.062562011 0.12049014 0.40840989
-0.059190489 0.12162233 0.41224754
-0.055985104 0.12328269 0.41787547
-0.052604266 0.1247833 0.42296186
-0.049109679 0.12624265 0.42790845
-0.045506734 0.1276646 0.43272823
-0.041806869 0.12907314 0.43750259
-0.038090248 0.13073896 0.44314897
-0.034169052 0.13203336 0.44753647
-0.030083954 0.13297583 0.45073104
-0.026092339 0.13471778 0.4566355
nan nan nan
nan nan nan
nan nan nan
nan nan nan
nan nan nan
nan nan nan
nan nan nan
nan nan nan
nan nan nan
nan nan nan
0.021425623 0.13030943 0.4416931
nan nan nan
nan nan nan
nan nan nan
nan nan nan
nan nan nan
nan nan nan
nan nan nan
nan nan nan
nan nan nan
nan nan nan
nan nan nan
0.076808192 0.13837358 0.46902707
0.08092057 0.13770589 0.46676391
0.084741525 0.13663843 0.46314567
0.08763586 0.13425785 0.45507658
nan nan nan
0.095094264 0.13247049 0.44901815
nan nan nan
0.10255102 0.1309783 0.44396025
0.10698473 0.13118643 0.4446657
0.11118549 0.13110392 0.44438604
0.11622274 0.13197738 0.44734669
0.12127912 0.13280949 0.45016724
0.12481573 0.13197738 0.44734669
0.13027756 0.13316856 0.45138434
nan nan nan
0.1399374 0.13411671 0.45459813
0.14351135 0.13338044 0.45210248
0.14746377 0.13302884 0.45091072
nan nan nan
nan nan nan
0.16350266 0.13555478 0.45947257
nan nan nan
nan nan nan
nan nan nan
nan nan nan
nan nan nan
nan nan nan
nan nan nan
nan nan nan
0.28148291 0.18775952 0.63642424
0.28825182 0.18818809 0.63787693
0.29382122 0.18783198 0.63666987
0.30050465 0.18818809 0.63787693
0.30605087 0.18783198 0.63666987
0.3111423 0.18721622 0.6345827
0.31235591 0.18433559 0.62481862
0.31851751 0.1844286 0.62513381
0.32357913 0.18389301 0.62331843
0.33052558 0.1844286 0.62513381
0.3355523 0.18389301 0.62331843
0.33969483 0.18290012 0.61995292
0.34080002 0.18033421 0.61125565
0.34478736 0.1793545 0.60793483
0.34918904 0.17861933 0.60544294
0.35646507 0.1793545 0.60793483
0.36081886 0.17861933 0.60544294
0.36110502 0.17592579 0.596313
0.36911923 0.17702259 0.60003066
0.37255946 0.17592579 0.596313
0.3806451 0.17702259 0.60003066
0.38602996 0.17684938 0.59944355
0.38952968 0.17583035 0.59598947
0.39386663 0.17521326 0.59389782
0.40097794 0.17583035 0.59598947
0.40655243 0.17576568 0.59577024
0.41250256 0.17586291 0.59609985
0.41779 0.17567885 0.59547597
0.42395291 0.17586291 0.59609985
0.42922837 0.17567885 0.59547597
0.43088457 0.17403777 0.58991343
0.43915993 0.17507814 0.59343982
0.4422161 0.17403777 0.58991343
0.44705832 0.17371778 0.58882874
0.4538866 0.17416786 0.59035432
0.45658702 0.17304242 0.58653957
0.46522659 0.17416786 0.59035432
-0.20406213 0.078992367 0.25926661
-0.20198819 0.07915546 0.25980189
-0.20036021 0.079499565 0.26093131
-0.19917351 0.080029704 0.26267135
-0.19550806 0.079564691 0.26114509
-0.19412792 0.080029704 0.26267135
-0.1934025 0.080780447 0.26513538
-0.19134623 0.080987923 0.26581636
-0.18830955 0.080780447 0.26513538
-0.18624021 0.080987923 0.26581636
-0.18631814 0.082147904 0.26962361
-0.18479235 0.082623541 0.27118474
-0.18096136 0.082067333 0.2693592
-0.17958324 0.082623541 0.27118474
-0.17880802 0.083477587 0.27398786
-0.17689733 0.083819114 0.27510884
-0.17354505 0.083477587 0.27398786
-0.17161281 0.083819114 0.27510884
-0.16985193 0.084256329 0.27654383
-0.16892296 0.085126653 0.27940041
-0.16738118 0.085711278 0.28131926
-0.16406877 0.085393541 0.28027636
-0.16197738 0.085711278 0.28131926
-0.1598395 0.086014807 0.28231546
-0.15871353 0.08688274 0.28516418
-0.1576498 0.087815821 0.28822672
-0.15646683 0.088714644 0.2911768
-0.15211332 0.087815821 0.28822672
-0.15087366 0.088714644 0.2911768
-0.14955553 0.089600392 0.29408398
-0.14996873 0.09157747 0.30057311
-0.14829479 0.092332654 0.30305174
-0.14620946 0.092856787 0.30477205
-0.14247353 0.092332654 0.30305174
-0.14035515 0.092856787 0.30477205
-0.13817397 0.093360826 0.30642638
-0.13596237 0.093865789 0.30808377
-0.13478592 0.09512379 0.31221274
-0.13348427 0.096348651 0.31623295
-0.13194606 0.097455837 0.3198669
-0.13001291 0.098317139 0.32269385
-0.12524214 0.097022273 0.31844389
-0.12381435 0.098317139 0.32269385
-0.12212536 0.099465758 0.32646382
-0.12031218 0.1005711 0.33009171
-0.1182747 0.10154369 0.33328396
-0.11703537 0.1032747 0.33896545
-0.11465243 0.10406676 0.3415651
-0.11188337 0.10454468 0.34313372
-0.10924458 0.10517702 0.34520915
-0.10661335 0.10585647 0.34743923
-0.10397134 0.10656876 0.3497771
-0.1015948 0.10760979 0.35319397
-0.097126156 0.10643025 0.3493225
-0.094576985 0.10734491 0.35232455
-0.092154533 0.10847661 0.35603899
-0.089874469 0.10986959 0.36061099
-0.087416284 0.11114776 0.36480618
-0.084949568 0.11252137 0.36931461
-0.082454897 0.11397605 0.37408909
-0.079685658 0.11516646 0.37799624
-0.076606885 0.11600178 0.38073793
-0.07376837 0.11730292 0.38500848
-0.072156318 0.12079456 0.39646864
-0.069062829 0.12205707 0.40061238
-0.065813608 0.12317706 0.40428841
-0.062446624 0.12420327 0.40765664
-0.05901676 0.12523337 0.41103756
-0.055895306 0.12711251 0.41720521
-0.052560285 0.12875868 0.42260826
-0.04923084 0.13069519 0.4289642
-0.045743451 0.13252781 0.4349792
-0.042082384 0.13417508 0.44038582
-0.038351089 0.13594154 0.44618365
-0.034371577 0.13716191 0.45018908
-0.030165222 0.13769798 0.45194861
-0.026053203 0.1389173 0.45595062
nan nan nan
nan nan nan
nan nan nan
nan nan nan
nan nan nan
nan nan nan
nan nan nan
nan nan nan
nan nan nan
nan nan nan
nan nan nan
nan nan nan
nan nan nan
nan nan nan
nan nan nan
nan nan nan
0.050234374 0.14420614 0.47330946
nan nan nan
nan nan nan
nan nan nan
0.067998745 0.14332291 0.47041059
0.072600141 0.14348772 0.4709515
0.076768413 0.14282738 0.46878415
0.081124596 0.14257042 0.46794081
0.084879123 0.1413386 0.46389773
0.087995872 0.1392206 0.45694607
0.091780782 0.13831072 0.45395967
0.095777415 0.13778794 0.45224386
0.10079993 0.13872239 0.45531088
0.10453794 0.13788484 0.45256191
0.10900047 0.13803168 0.45304382
0.11296647 0.13756259 0.45150423
0.11755802 0.13786179 0.45248625
0.12097492 0.13681123 0.44903809
0.12421998 0.13564534 0.44521147
0.12960039 0.13681123 0.44903809
0.13512178 0.13804601 0.45309091
0.14044458 0.13900721 0.45624572
0.14459887 0.1387887 0.4555285
0.14857207 0.13841429 0.45429966
0.15345553 0.13888508 0.45584488
0.15843068 0.13941045 0.45756921
0.16338268 0.13988762 0.45913535
0.16748825 0.13963406 0.45830312
nan nan nan
0.17539807 0.13892624 0.45597994
0.17916679 0.13845433 0.45443106
nan nan nan
nan nan nan
nan nan nan
nan nan nan
0.27859053 0.19191088 0.62988466
0.28511119 0.19222844 0.63092697
0.29100633 0.19211981 0.63057041
0.29723054 0.19222844 0.63092697
0.30311882 0.19211981 0.63057041
0.30857784 0.19174869 0.62935239
0.31317762 0.19086817 0.62646234
0.31699955 0.18955572 0.62215465
0.32198143 0.18897259 0.62024075
0.32895041 0.18955572 0.62215465
0.3338955 0.18897259 0.62024075
0.33815059 0.18802625 0.61713463
0.339672 0.18561862 0.60923243
0.343034 0.18428135 0.60484326
0.3513746 0.18561862 0.60923243
0.35316268 0.18350731 0.60230273
0.35659128 0.18230276 0.59834921
0.35892278 0.18058442 0.5927093
0.36742839 0.18197764 0.59728211
0.37030798 0.18058442 0.5927093
0.37890145 0.18197764 0.59728211
0.38513383 0.18221223 0.59805202
0.38911897 0.18139234 0.59536105
0.39646164 0.18213868 0.59781069
0.40137684 0.18176447 0.59658241
0.40454206 0.18061945 0.59282422
0.41194558 0.18137223 0.59529501
0.41592953 0.18061945 0.59282422
0.42338049 0.18137223 0.59529501
0.42689124 0.18043949 0.5922336
0.42964292 0.17921466 0.5882135
0.43826732 0.18043949 0.5922336
0.43931359 0.1785529 0.58604151
0.4436532 0.17803565 0.58434379
0.45233488 0.179252 0.58833605
0.45487773 0.17803565 0.58434379
0.4673371 0.1806829 0.59303248
-0.20519406 0.081947282 0.26070476
-0.20247068 0.081858553 0.26042247
-0.20045877 0.082058847 0.26105967
-0.19855711 0.082309917 0.26185843
-0.19544412 0.082058847 0.26105967
-0.19361056 0.082345404 0.26197132
-0.19273022 0.083050266 0.26421377
-0.19090335 0.083360627 0.26520112
-0.187655 0.083050266 0.26421377
-0.18580917 0.083360627 0.26520112
-0.18608454 0.084644489 0.26928556
-0.18470171 0.085199632 0.2710517
-0.1809119 0.084644489 0.26928556
-0.17949513 0.085199632 0.2710517
-0.17912492 0.08627519 0.27447346
-0.17737269 0.086707294 0.27584812
-0.17530777 0.086997315 0.2767708
-0.17207398 0.086707294 0.27584812
-0.16999134 0.086997315 0.2767708
-0.16866124 0.087687813 0.27896753
-0.16638137 0.087898843 0.27963889
-0.16330262 0.087687813 0.27896753
-0.16138481 0.08810354 0.2802901
-0.15923718 0.088405773 0.28125161
-0.15867084 0.089611508 0.2850875
-0.15770403 0.090629414 0.28832585
-0.15670183 0.091663025 0.29161415
-0.15216564 0.090629414 0.28832585
-0.15110028 0.091663025 0.29161415
-0.14995614 0.092686981 0.29487175
-0.15009299 0.094557375 0.30082217
-0.14796039 0.095043406 0.30236837
-0.14566711 0.095443584 0.30364153
-0.14215226 0.095043406 0.30236837
-0.13983451 0.095443584 0.30364153
-0.13772427 0.096005477 0.30542907
-0.13556792 0.096558973 0.30718997
-0.13474 0.098104335 0.31210634
-0.13357548 0.099469371 0.31644902
-0.13192445 0.10052724 0.3198145
-0.13022316 0.10159633 0.32321566
-0.12794766 0.10225872 0.32532299
-0.12416378 0.10171856 0.32360455
-0.12207403 0.10257418 0.32632658
-0.11989695 0.10339958 0.32895249
-0.1175649 0.10413239 0.33128384
-0.11537611 0.10503639 0.33415979
-0.11418019 0.10692188 0.34015822
-0.11147884 0.1074672 0.34189308
-0.10881367 0.10808153 0.34384751
-0.1063389 0.10892937 0.3465448
-0.1038058 0.10977031 0.34922016
-0.10143522 0.11084503 0.35263923
-0.097097695 0.10977031 0.34922016
-0.094661452 0.11084503 0.35263923
-0.092014506 0.11174362 0.35549799
-0.089767888 0.11321636 0.36018333
-0.087366469 0.11460411 0.36459827
-0.084924996 0.11605301 0.36920777
-0.08241839 0.11753531 0.37392348
-0.079533614 0.11858879 0.37727499
-0.076398447 0.11935166 0.37970197
-0.073556192 0.12067156 0.38390106
-0.072128087 0.12457316 0.39631352
-0.069098413 0.1259893 0.40081879
-0.065792188 0.12703855 0.40415683
-0.062226232 0.12768641 0.40621793
-0.058720805 0.12855345 0.40897632
-0.055522244 0.13026477 0.41442066
-0.052184295 0.13188812 0.41958511
-0.048942138 0.13404553 0.42644864
-0.045551833 0.1361542 0.43315709
-0.041997548 0.13814734 0.43949804
-0.038388934 0.14038724 0.44662395
-0.034468681 0.14190763 0.45146093
-0.030261576 0.14251472 0.45339227
-0.026182339 0.14402924 0.45821056
nan nan nan
nan nan nan
nan nan nan
nan nan nan
nan nan nan
nan nan nan
nan nan nan
nan nan nan
nan nan nan
nan nan nan
nan nan nan
0.028421301 0.15373091 0.48907515
0.033355247 0.1548295 0.49257022
0.038072195 0.15477306 0.4923906
0.042235337 0.15272646 0.4858796
0.046154622 0.15029304 0.478138
0.049454097 0.14646439 0.46595767
0.053308453 0.14477816 0.46059313
0.057890613 0.1451755 0.4618572
0.062345713 0.14522031 0.46199977
0.067009121 0.14571214 0.46356446
0.07157664 0.14594716 0.46431217
0.075818561 0.14552966 0.46298391
0.080210105 0.14542969 0.46266586
0.083776474 0.14392261 0.45787129
0.087855741 0.14340304 0.45621836
0.091965392 0.14298008 0.45487279
0.096254729 0.14286219 0.45449769
0.10120295 0.14369 0.4571313
0.10522658 0.1431908 0.45554313
0.10934059 0.14284955 0.45445752
0.11118549 0.1396838 0.44438604
0.11622274 0.14061441 0.44734669
0.12127912 0.14150099 0.45016724
0.12481573 0.14061441 0.44734669
0.12992629 0.14150099 0.45016724
0.13543712 0.14275236 0.45414832
0.14075483 0.14372845 0.45725363
0.14525561 0.14383651 0.4575974
0.14924055 0.14344244 0.45634371
0.15300727 0.14286709 0.45451331
0.15725741 0.14276251 0.45418063
0.16176187 0.14288825 0.45458061
0.1660983 0.14286283 0.45449975
0.16896011 0.14160287 0.45049134
0.17319661 0.14152917 0.45025691
0.1776135 0.14160287 0.45049134
0.18324262 0.14261653 0.45371616
nan nan nan
nan nan nan
nan nan nan
0.27779588 0.19742678 0.628088
0.28370017 0.19733767 0.62780446
0.2898607 0.19742678 0.628088
0.29575953 0.19733767 0.62780446
0.30605087 0.20012434 0.63666987
0.30905741 0.19813168 0.6303305
0.31235591 0.19639914 0.62481862
0.31649268 0.19524905 0.62115979
0.32113114 0.19444533 0.61860281
0.32842439 0.19524905 0.62115979
0.33301374 0.19444533 0.61860281
0.33612138 0.19281974 0.61343127
0.33892876 0.19108091 0.60789937
0.34192461 0.18950543 0.60288715
0.3498272 0.19065659 0.60654944
0.35350534 0.18950543 0.60288715
0.35628313 0.18791649 0.59783214
0.3602798 0.18701062 0.59495026
0.36719513 0.18762438 0.59690291
0.37170807 0.18701062 0.59495026
0.37866089 0.18762438 0.59690291
0.38557786 0.18820235 0.59874159
0.38952968 0.18733728 0.59598947
0.39707896 0.18820235 0.59874159
0.40097794 0.18733728 0.59598947
0.40281463 0.18554662 0.59029275
0.41025102 0.18634926 0.59284621
0.41415343 0.18554662 0.59029275
0.42163888 0.18634926 0.59284621
0.42405993 0.18492204 0.58830571
0.42720294 0.18384303 0.58487302
0.43536058 0.18492204 0.58830571
0.43843767 0.18384303 0.58487302
0.44089416 0.18253441 0.58070982
0.44853213 0.18337686 0.58338994
0.45204893 0.18253441 0.58070982
0.4627119 0.18456294 0.58716327
-0.20460141 0.084220074 0.25995177
-0.20221326 0.084265307 0.26009136
-0.19960803 0.084220074 0.25995177
-0.1977316 0.084485091 0.26076975
-0.19471477 0.084263392 0.26008546
-0.19272253 0.084485091 0.26076975
-0.19269243 0.085584104 0.26416194
-0.19152801 0.086201921 0.26606888
-0.18780611 0.085669823 0.26442653
-0.18604997 0.086032137 0.26554483
-0.18613543 0.087267928 0.2693592
-0.18479235 0.08785937 0.27118474
-0.18096136 0.087267928 0.2693592
-0.17958324 0.08785937 0.27118474
-0.17808081 0.088406518 0.27287355
-0.17689733 0.089130722 0.27510884
-0.17504352 0.089534 0.2763536
-0.17191039 0.089285262 0.27558586
-0.16973509 0.089534 0.2763536
-0.16860655 0.090351567 0.27887708
-0.16663721 0.090737678 0.28006887
-0.16473188 0.091171913 0.28140914
-0.16125742 0.090737678 0.28006887
-0.15932637 0.091171913 0.28140914
-0.1586293 0.092339449 0.28501284
-0.15746777 0.093272865 0.28789389
-0.15653443 0.094377242 0.29130265
-0.15193766 0.093272865 0.28789389
-0.15093887 0.094377242 0.29130265
-0.14983648 0.095457345 0.29463646
-0.14996873 0.09738072 0.30057311
-0.14829479 0.098183751 0.30305174
-0.14620946 0.098741107 0.30477205
-0.14298783 0.098538175 0.30414569
-0.13906893 0.097836234 0.30197909
-0.13714556 0.098538175 0.30414569
-0.13514492 0.099213928 0.30623147
-0.13337207 0.1000907 0.3089377
-0.13316752 0.10221113 0.31548253
-0.13132781 0.103146 0.31836811
-0.12956828 0.10418992 0.32159024
-0.12729232 0.10485942 0.32365671
-0.12339091 0.10418992 0.32159024
-0.12107527 0.10485942 0.32365671
-0.11950683 0.10622839 0.32788214
-0.11720319 0.10700025 0.33026457
-0.11497489 0.10788576 0.33299777
-0.11373679 0.10977767 0.33883727
-0.11116047 0.11045136 0.34091666
-0.10861948 0.1112021 0.34323388
-0.10634714 0.11228348 0.34657165
-0.10383622 0.11317471 0.3493225
-0.10134471 0.11414733 0.35232455
-0.098993614 0.11535075 0.35603899
-0.094576985 0.11414733 0.35232455
-0.092154533 0.11535075 0.35603899
-0.089874469 0.116832 0.36061099
-0.087416284 0.11819117 0.36480618
-0.084783383 0.11941775 0.36859211
-0.082324497 0.121007 0.37349746
-0.079478718 0.12214649 0.37701461
-0.076370336 0.1229719 0.37956226
-0.073453091 0.12420326 0.38336298
-0.070984595 0.12636343 0.39003047
-0.068961024 0.12960045 0.40002182
-0.065575093 0.13050807 0.40282324
-0.061904196 0.13092679 0.40411565
-0.05832703 0.13161302 0.40623376
-0.055176612 0.13342962 0.41184086
-0.051930621 0.13527784 0.4175455
-0.048888233 0.13801014 0.42597896
-0.045607213 0.14050634 0.43368369
-0.042154666 0.14292279 0.44114223
-0.038527798 0.1452222 0.44823954
-0.034581877 0.14674622 0.45294353
-0.03033855 0.14726523 0.45454553
-0.026237389 0.14876477 0.45917398
nan nan nan
nan nan nan
nan nan nan
nan nan nan
nan nan nan
nan nan nan
nan nan nan
nan nan nan
nan nan nan
nan nan nan
nan nan nan
0.028608436 0.15949556 0.49229538
0.033251557 0.15908852 0.49103901
0.037626334 0.15765822 0.48662424
0.041652668 0.15524527 0.47917652
0.045519203 0.15277615 0.47155541
0.049205747 0.15020446 0.46361771
0.05339646 0.14947091 0.46135351
0.057951752 0.14979212 0.46234497
0.062351409 0.14969395 0.46204197
0.066558979 0.14917833 0.46045041
0.070917673 0.14904454 0.4600375
0.075143181 0.14866295 0.45885971
0.07932727 0.14824626 0.45757353
0.08340247 0.14768049 0.45582724
0.087683521 0.14751749 0.45532411
0.092066169 0.14753276 0.45537126
0.096681289 0.14790228 0.45651183
0.1014801 0.14850858 0.4583832
0.10453794 0.14662257 0.45256191
0.10900047 0.1467787 0.45304382
0.11296647 0.1462799 0.45150423
0.11755802 0.14659806 0.45248625
0.12163932 0.1462799 0.45150423
0.12624973 0.14659806 0.45248625
0.13093999 0.14698467 0.45367953
0.13642992 0.14821512 0.45747739
0.14158203 0.14901321 0.45994079
0.14615248 0.14916937 0.46042281
0.14999889 0.14859906 0.45866251
0.15282544 0.14707981 0.4539732
0.15665646 0.1465847 0.45244503
0.15777777 0.14364927 0.44338456
0.16191927 0.14354558 0.44306454
0.16635278 0.14369948 0.44353956
0.17042999 0.14354558 0.44306454
0.17487264 0.14369948 0.44353956
0.18021441 0.14456731 0.44621819
0.1852313 0.14514029 0.44798672
nan nan nan
nan nan nan
0.27659592 0.20261112 0.62537491
0.28175718 0.20200525 0.62350482
0.29068986 0.20407222 0.62988466
0.29723054 0.20440991 0.63092697
0.30311882 0.20429438 0.63057041
0.30724174 0.20301689 0.62662733
0.31113827 0.20164178 0.62238294
0.31548306 0.20060353 0.6191783
0.3230935 0.20164178 0.62238294
0.32737672 0.20060353 0.6191783
0.33138406 0.19943629 0.61557555
0.33264124 0.19668385 0.60707992
0.33747154 0.19610257 0.60528576
0.34241974 0.19560832 0.60376018
0.34909835 0.19610257 0.60528576
0.35401726 0.19560832 0.60376018
0.35809115 0.19467063 0.60086596
0.36175752 0.19354464 0.59739053
0.36963308 0.19467063 0.60086596
0.37030798 0.19202802 0.5927093
0.37890145 0.19350953 0.59728211
0.38513383 0.19375896 0.59805202
0.38911897 0.19288714 0.59536105
0.39662164 0.19375896 0.59805202
0.40055513 0.19288714 0.59536105
0.40168616 0.19070932 0.58863908
0.40838611 0.19119924 0.59015125
0.41060403 0.18960609 0.58523381
0.41593546 0.18947425 0.58482689
0.42219946 0.1897651 0.58572465
0.42672506 0.18927722 0.58421874
0.43345055 0.1897651 0.58572465
0.43691328 0.18883035 0.58283949
0.43951094 0.18755013 0.57888794
0.44810891 0.18883035 0.58283949
0.45487773 0.18931772 0.58434379
0.4673371 0.19213271 0.59303248
-0.20519406 0.086980775 0.26070476
-0.20247068 0.086886592 0.26042247
-0.1994002 0.086639255 0.25968111
-0.19749492 0.086898319 0.26045761
-0.19641449 0.087531641 0.26235583
-0.19249184 0.086898319 0.26045761
-0.19137496 0.087531641 0.26235583
-0.19188325 0.088935092 0.26656237
-0.18772092 0.088182487 0.2643066
-0.1867629 0.088935092 0.26656237
-0.18531038 0.089469872 0.26816526
-0.185113 0.090634272 0.27165526
-0.18358862 0.091172963 0.27326986
-0.1798948 0.090634272 0.27165526
-0.17833944 0.091172963 0.27326986
-0.17737269 0.092033163 0.27584812
-0.17530777 0.092341006 0.2767708
-0.17207398 0.092033163 0.27584812
-0.16968493 0.092174567 0.27627194
-0.16905749 0.093292579 0.27962294
-0.16727749 0.093800388 0.28114498
-0.16545932 0.094303124 0.28265181
-0.16187702 0.093800388 0.28114498
-0.16002993 0.094303124 0.28265181
-0.15826079 0.094869941 0.28435072
-0.15729088 0.095944189 0.28757051
-0.15641867 0.097117476 0.29108718
-0.15542795 0.098258577 0.29450735
-0.15082723 0.097117476 0.29108718
-0.14977083 0.098258577 0.29450735
-0.14836217 0.099208042 0.29735318
-0.14796039 0.1008813 0.30236837
-0.14566711 0.10130608 0.30364153
-0.14359118 0.10190247 0.30542907
-0.13983451 0.10130608 0.30364153
-0.13676012 0.10118909 0.3032909
-0.13493243 0.10200953 0.30574998
-0.13315004 0.1029015 0.30842343
-0.13266367 0.10485842 0.31428885
-0.13079914 0.10579182 0.31708652
-0.12905176 0.10686672 0.32030827
-0.12692015 0.10766816 0.32271042
-0.12289903 0.10686672 0.32030827
-0.12072127 0.10766816 0.32271042
-0.11879117 0.10873855 0.32591864
-0.11669974 0.10971519 0.32884592
-0.11461985 0.11075733 0.33196947
-0.11235524 0.11167549 0.33472145
-0.11095142 0.11352853 0.34027553
-0.10852827 0.11441939 0.34294567
-0.10627663 0.11555251 0.34634191
-0.10375972 0.11646108 0.34906515
-0.10117206 0.11734828 0.35172436
-0.098843195 0.11860731 0.35549799
-0.094415866 0.11734828 0.35172436
-0.092014506 0.11860731 0.35549799
-0.089767888 0.12017051 0.36018333
-0.087366469 0.12164351 0.36459827
-0.084924996 0.12318141 0.36920777
-0.08241839 0.12475474 0.37392348
-0.079474986 0.12578014 0.37699687
-0.076390579 0.12666963 0.3796629
-0.073386684 0.12778847 0.38301638
-0.070938259 0.1300437 0.3897759
-0.068942174 0.13342564 0.39991248
-0.065518819 0.13428143 0.40247753
-0.061907813 0.13483584 0.40413925
-0.058243334 0.13534017 0.40565085
-0.055134114 0.13729955 0.41152364
-0.051885486 0.13918757 0.41718256
-0.048853561 0.14202158 0.42567682
-0.045540791 0.14448225 0.43305212
-0.042169563 0.14723343 0.44129816
-0.038501211 0.14944613 0.44793022
-0.034575 0.15108871 0.45285347
-0.030363047 0.1517757 0.45491254
-0.026255144 0.15330115 0.45948473
nan nan nan
nan nan nan
nan nan nan
nan nan nan
nan nan nan
nan nan nan
nan nan nan
nan nan nan
nan nan nan
0.018640183 0.15985835 0.4791384
0.023523932 0.16179734 0.4849501
0.028300224 0.16247849 0.48699167
0.032843176 0.16181676 0.4850083
0.037103236 0.16009875 0.47985893
0.041008655 0.15739922 0.47176775
0.044926941 0.15528132 0.46541986
0.048920296 0.15378274 0.46092817
0.053320687 0.15370621 0.46069881
0.057896238 0.15410766 0.46190205
0.062181775 0.15373494 0.46078491
0.066016719 0.15237176 0.4566991
0.070055835 0.15162031 0.45444682
0.074068375 0.15090287 0.45229644
0.078378364 0.15083735 0.45210007
0.082561485 0.15054737 0.45123091
0.08684843 0.15046619 0.45098761
0.091965392 0.15176244 0.45487279
0.096254729 0.15163729 0.45449769
0.10120295 0.15251595 0.4571313
0.10522658 0.15198609 0.45554313
0.10934059 0.15162389 0.45445752
0.11361273 0.15150034 0.45408723
0.11807017 0.15162389 0.45445752
0.1223352 0.15150034 0.45408723
0.12664619 0.15144026 0.45390716
0.13120167 0.15166681 0.45458618
0.13653195 0.15274556 0.45781949
0.14133479 0.15318535 0.45913765
0.14544432 0.15286981 0.4581919
0.14797841 0.15096557 0.45248437
0.14838269 0.14705917 0.44077584
0.15205097 0.14651464 0.43914375
0.15579098 0.14606677 0.43780133
0.15997165 0.14604472 0.43773526
0.16420062 0.14606677 0.43780133
0.16838002 0.14604472 0.43773526
0.17315884 0.146531 0.43919277
0.17840123 0.14737707 0.44172871
0.18333972 0.14793865 0.44341192
nan nan nan
nan nan nan
0.27779588 0.20955345 0.628088
nan nan nan
0.2898607 0.20955345 0.628088
0.29575953 0.20945886 0.62780446
0.30120072 0.2090504 0.62658024
0.30554712 0.20791301 0.62317115
0.30994177 0.20685148 0.61998951
0.31426111 0.20578068 0.61678004
0.32185102 0.20685148 0.61998951
0.323908 0.20439202 0.61261779
0.32801321 0.20328969 0.60931385
0.3310622 0.20158289 0.6041981
0.33559647 0.20082371 0.60192263
0.34266812 0.20158289 0.6041981
0.34715867 0.20082371 0.60192263
0.35225391 0.20043343 0.60075289
0.3562074 0.19941658 0.59770507
0.3602798 0.19849747 0.59495026
0.36776677 0.19945897 0.59783214
0.37170807 0.19849747 0.59495026
0.37932423 0.1994978 0.59794855
0.38396144 0.19892494 0.59623152
0.38801283 0.19806987 0.59366864
0.39541432 0.19892494 0.59623152
0.39941648 0.19806987 0.59366864
0.39713719 0.19416778 0.58197296
0.40165439 0.19365075 0.58042336
0.4083162 0.19416778 0.58197296
0.41280362 0.19365075 0.58042336
0.41950741 0.19417343 0.58198994
0.42438161 0.19384661 0.5810104
0.43068677 0.19417343 0.58198994
0.43599537 0.19404835 0.58161503
0.44089416 0.19374634 0.58070982
0.44853213 0.19464052 0.58338994
0.45204893 0.19374634 0.58070982
0.4627119 0.19589944 0.58716327
-0.20460141 0.089239031 0.25995177
-0.20221326 0.089286953 0.26009136
-0.19960803 0.089239031 0.25995177
-0.1977316 0.089519836 0.26076975
-0.19676682 0.090225875 0.26282644
-0.19291119 0.089607477 0.26102504
-0.19171825 0.090225875 0.26282644
-0.19211265 0.091617793 0.26688108
-0.19047531 0.092065312 0.26818469
-0.18698619 0.091617793 0.26688108
-0.1853238 0.092065312 0.26818469
-0.18446951 0.092932552 0.27071095
-0.18329592 0.09366145 0.27283418
-0.1797201 0.093166158 0.27139142
-0.17805511 0.09366145 0.27283418
-0.17720406 0.094606072 0.27558586
-0.17504352 0.094869621 0.2763536
-0.17191039 0.094606072 0.27558586
-0.16973509 0.094869621 0.2763536
-0.16760255 0.095165826 0.27721643
-0.16771768 0.096768454 0.28188485
-0.16598529 0.097340181 0.28355029
-0.16230303 0.096768454 0.28188485
-0.16053863 0.097340181 0.28355029
-0.1586957 0.097883217 0.28513214
-0.15703593 0.098560274 0.2871044
-0.1555315 0.099360771 0.28943622
-0.15406497 0.10021506 0.29192474
-0.15060604 0.099780977 0.29066029
-0.14933336 0.10080633 0.29364714
-0.14787897 0.10174613 0.29638475
-0.14718792 0.10325833 0.30078974
-0.14486958 0.10366662 0.30197909
-0.14298783 0.10441039 0.30414569
-0.14102726 0.10512642 0.30623147
-0.13714556 0.10441039 0.30414569
-0.13514492 0.10512642 0.30623147
-0.13328043 0.10598258 0.30872545
-0.13239832 0.10767666 0.31366026
-0.13034914 0.10847835 0.3159956
-0.12844548 0.10944226 0.31880346
-0.12635279 0.11028825 0.32126781
-0.12448855 0.11138101 0.32445097
-0.12018162 0.11028825 0.32126781
-0.11825623 0.11138101 0.32445097
-0.116251 0.11245566 0.32758141
-0.11433382 0.11367765 0.33114105
-0.11216715 0.11471441 0.3341611
-0.11074699 0.1165982 0.33964854
-0.10842482 0.11761784 0.34261876
-0.10619099 0.11880014 0.34606278
-0.10378417 0.11985906 0.34914741
-0.1012403 0.12082514 0.35196158
-0.098902896 0.12211288 0.35571271
-0.096584067 0.1235165 0.35980147
-0.09207008 0.12211288 0.35571271
-0.089672714 0.1235165 0.35980147
-0.087259233 0.12500957 0.36415073
-0.084783383 0.12653425 0.36859211
-0.082324497 0.1282182 0.37349746
-0.079478718 0.12942562 0.37701461
-0.076370336 0.13030019 0.37956226
-0.073453091 0.13160495 0.38336298
-0.071012117 0.13394576 0.39018172
-0.068096198 0.13560162 0.39500523
-0.065321714 0.13775115 0.40126672
-0.061778571 0.13844761 0.40329555
-0.058146741 0.13902521 0.4049781
-0.055126235 0.14125206 0.41146484
-0.051930312 0.14333864 0.41754299
-0.048805445 0.14598699 0.42525759
-0.045403965 0.1482161 0.43175098
-0.042015154 0.15093885 0.43968228
-0.038251866 0.15277442 0.44502929
-0.034350622 0.15445153 0.44991466
-0.030205835 0.15535866 0.45255712
nan nan nan
nan nan nan
nan nan nan
nan nan nan
nan nan nan
nan nan nan
nan nan nan
nan nan nan
nan nan nan
nan nan nan
nan nan nan
0.023401119 0.16560972 0.4824183
0.028105436 0.16602904 0.48363978
0.032570168 0.16511483 0.4809767
0.036704753 0.16296194 0.47470534
0.040511418 0.15998976 0.46604744
0.044458915 0.15810986 0.46057135
0.048665442 0.15740804 0.45852694
0.053136222 0.1576065 0.45910501
0.057727117 0.15810351 0.46055281
0.061970923 0.15764682 0.45922247
0.065845095 0.15637298 0.45551181
0.069783971 0.15540196 0.45268324
0.073499165 0.15407594 0.44882056
0.07932727 0.15708075 0.45757353
0.08340247 0.15648127 0.45582724
0.087683521 0.15630853 0.45532411
0.092066169 0.15632471 0.45537126
0.096681289 0.15671627 0.45651183
0.1014801 0.15735869 0.4583832
0.10561694 0.15696388 0.45723313
0.10929917 0.15595193 0.45428532
0.1137614 0.15608792 0.45468143
0.11802544 0.15595193 0.45428532
0.12249528 0.15608792 0.45468143
0.12664892 0.15582548 0.45391694
0.13080631 0.15558496 0.45321634
0.13589521 0.15643221 0.45568436
0.14029844 0.15646195 0.455771
0.14171818 0.15326335 0.44645348
0.14450955 0.15169242 0.44187742
0.14687634 0.14977814 0.43630117
0.15082926 0.14954266 0.43561524
0.15457283 0.14911796 0.43437809
0.15844969 0.14884079 0.43357065
0.16291672 0.14911796 0.43437809
0.16677806 0.14884079 0.43357065
0.17154235 0.14936329 0.43509275
0.17653868 0.15005819 0.43711695
0.18204369 0.15114315 0.44027743
nan nan nan
nan nan nan
0.27659592 0.2146854 0.62537491
nan nan nan
0.28860861 0.2146854 0.62537491
0.29373395 0.21404341 0.62350482
0.29743069 0.21240686 0.61873758
0.30214995 0.21155034 0.61624253
0.30704692 0.21084875 0.6141988
0.3104226 0.20914863 0.60924643
0.31722766 0.20977928 0.61108345
0.32212546 0.20914863 0.60924643
0.32456553 0.20697324 0.60290951
0.32947883 0.2064236 0.60130841
0.33452189 0.20597281 0.59999526
0.34102923 0.2064236 0.60130841
0.34604707 0.20597281 0.59999526
0.35401726 0.20726526 0.60376018
0.35809115 0.20627171 0.60086596
0.36175752 0.20507863 0.59739053
0.36963308 0.20627171 0.60086596
0.37323266 0.20507863 0.59739053
0.37798116 0.20454338 0.59583139
0.38149506 0.20336598 0.59240162
0.38942638 0.20454338 0.59583139
0.38921821 0.20147341 0.58688861
0.39230222 0.2001709 0.58309442
0.39548093 0.19895272 0.57954586
0.40350276 0.2001709 0.58309442
0.40661332 0.19895272 0.57954586
0.41221631 0.19897047 0.57959759
0.4191986 0.19964467 0.58156151
0.42729539 0.20082492 0.58499956
0.43345055 0.20107384 0.58572465
0.43691328 0.20008339 0.58283949
0.43951094 0.19872686 0.57888794
0.44810891 0.20008339 0.58283949
0.45063066 0.19872686 0.57888794
0.45937482 0.200114 0.58292866
-0.20438838 0.091652974 0.25968111
-0.20204927 0.091723338 0.25988045
-0.1994002 0.091652974 0.25968111
-0.19749492 0.091927037 0.26045761
-0.19641449 0.092597008 0.26235583
-0.19249184 0.091927037 0.26045761
-0.19213264 0.092963606 0.26339453
-0.19229105 0.094281629 0.26712888
-0.19024755 0.094541095 0.26786402
-0.18715982 0.094281629 0.26712888
-0.18510221 0.094541095 0.26786402
-0.18431439 0.095465548 0.27048329
-0.18252373 0.095889598 0.27168477
-0.17911871 0.095465548 0.27048329
-0.17749846 0.095994234 0.27198121
-0.17695521 0.097129881 0.27519885
-0.17499179 0.097508617 0.27627194
-0.17302324 0.097896114 0.27736983
-0.16968493 0.097508617 0.27627194
-0.16769528 0.097896114 0.27736983
-0.16727749 0.099228531 0.28114498
-0.16545932 0.099760354 0.28265181
-0.16454342 0.100863 0.28577593
-0.1609593 0.10033972 0.28429332
-0.15905403 0.100863 0.28577593
-0.15721355 0.10144649 0.28742912
-0.15550861 0.10213985 0.28939363
-0.15384325 0.10288493 0.29150465
-0.14994971 0.10213985 0.28939363
-0.14824381 0.10288493 0.29150465
-0.14687282 0.10389557 0.29436815
-0.14622819 0.10546983 0.29882848
-0.14424919 0.10612538 0.30068588
-0.14258598 0.10704481 0.3032909
-0.14080551 0.10791273 0.30574998
-0.13676012 0.10704481 0.3032909
-0.13493243 0.10791273 0.30574998
-0.13315004 0.10885631 0.30842343
-0.131183 0.10968843 0.31078109
-0.12995394 0.11119072 0.31503755
-0.12808934 0.11220788 0.31791949
-0.12620316 0.11325539 0.32088739
-0.12443224 0.11446134 0.32430422
-0.12003931 0.11325539 0.32088739
-0.11820275 0.11446134 0.32430422
-0.11629654 0.1156633 0.32770973
-0.11442336 0.11696589 0.33140036
-0.11230212 0.11808219 0.3345632
-0.10975698 0.11880542 0.33661231
-0.10791994 0.12036227 0.34102336
-0.10608219 0.12201577 0.34570822
-0.10368864 0.12311618 0.34882605
-0.1012693 0.12425842 0.35206237
-0.098819099 0.12544042 0.35541132
-0.096403822 0.12675291 0.35913002
-0.091992073 0.12544042 0.35541132
-0.089505367 0.12675291 0.35913002
-0.087172739 0.12839755 0.3637898
-0.084795222 0.13011067 0.36864358
-0.082284138 0.1317592 0.37331438
-0.079474986 0.13305892 0.37699687
-0.076390579 0.13399988 0.3796629
-0.073386684 0.13518347 0.38301638
-0.070938259 0.13756919 0.3897759
-0.068107195 0.13943738 0.39506903
-0.065518819 0.14205217 0.40247753
-0.061907813 0.14263867 0.40413925
-0.057987232 0.14254263 0.40386716
-0.055070464 0.14507727 0.41104856
-0.051941391 0.14740087 0.41763207
-0.048684038 0.1497189 0.42419973
-0.04521089 0.15173608 0.42991504
-0.041793324 0.15436405 0.43736088
-0.037990555 0.15599757 0.44198915
-0.034140158 0.15782191 0.44715804
-0.030139966 0.15937917 0.45157024
nan nan nan
nan nan nan
nan nan nan
nan nan nan
nan nan nan
nan nan nan
nan nan nan
nan nan nan
nan nan nan
nan nan nan
nan nan nan
0.023177164 0.16863731 0.47780144
0.02769405 0.16819936 0.47656059
0.032054022 0.16706778 0.47335449
0.036072467 0.16465841 0.46652797
0.039911173 0.16205163 0.45914218
0.043973159 0.16077998 0.45553917
0.048307735 0.16064496 0.45515662
0.052754834 0.16087548 0.45580977
0.057230279 0.1611505 0.45658898
0.061398182 0.16058201 0.45497829
0.066016719 0.16118938 0.4566991
0.070055835 0.16039443 0.45444682
0.073963217 0.15940884 0.45165429
0.078378364 0.15956616 0.45210007
0.082561485 0.15925939 0.45123091
0.08684843 0.15917352 0.45098761
0.091238841 0.15927644 0.45127919
0.095765844 0.15959764 0.45218927
0.10038511 0.16003807 0.45343712
0.1048068 0.16013996 0.45372584
0.10850088 0.1591664 0.4509674
0.11352232 0.16013996 0.45372584
0.11716343 0.1591664 0.4509674
0.12189799 0.15969475 0.45246437
0.12609938 0.15951225 0.45194736
0.12983344 0.15877046 0.44984558
0.13315822 0.15759201 0.44650671
0.13720837 0.15731882 0.44573262
0.13973914 0.1553728 0.44021896
0.1432178 0.15456405 0.43792751
0.14574215 0.1528009 0.43293202
0.15002832 0.1529315 0.43330204
0.15387684 0.15262097 0.43242219
0.15835153 0.1529315 0.43330204
0.16218314 0.15262097 0.43242219
0.16605839 0.15236598 0.43169975
0.17053792 0.15266436 0.43254513
0.17840123 0.15590565 0.44172871
0.18421626 0.15724795 0.44553185
nan nan nan
nan nan nan
0.27728564 0.22127293 0.62693435
nan nan nan
0.28932828 0.22127293 0.62693435
0.2934939 0.21988265 0.62299526
0.29607558 0.21738498 0.61591858
0.29948145 0.21557842 0.61080003
0.30391583 0.21456741 0.60793555
0.31121415 0.21557842 0.61080003
0.31559351 0.21456741 0.60793555
0.31982478 0.21349429 0.60489506
0.32234663 0.21133873 0.59878772
0.32725993 0.21079914 0.59725887
0.33244824 0.21045223 0.59627599
0.34266812 0.21324831 0.6041981
0.34715867 0.2124452 0.60192263
0.35186607 0.21179889 0.60009146
0.3562074 0.21095663 0.59770507
0.3604857 0.21010436 0.5952903
0.3676886 0.21095663 0.59770507
0.37192053 0.21010436 0.5952903
0.37500322 0.2086385 0.59113711
0.37613228 0.20614561 0.58407402
0.384525 0.2076485 0.58833218
0.38735163 0.20614561 0.58407402
0.39068559 0.20495179 0.58069158
0.39434329 0.20395902 0.57787871
0.40184 0.20495179 0.58069158
0.40544364 0.20395902 0.57787871
0.41322109 0.20506434 0.5810104
0.41950741 0.20541006 0.58198994
0.42438161 0.20506434 0.5810104
0.43068677 0.20541006 0.58198994
0.43599537 0.20527774 0.58161503
0.43889064 0.20402686 0.57807094
0.44716752 0.20527774 0.58161503
0.45106146 0.20451054 0.57944131
0.45601392 0.20423611 0.57866377
-0.2046712 0.094290145 0.26004046
-0.20237979 0.09438628 0.26030558
-0.19971398 0.094308004 0.26008973
-0.19737965 0.09438628 0.26030558
-0.19676682 0.095300339 0.26282644
-0.19291119 0.094647147 0.26102504
-0.19171825 0.095300339 0.26282644
-0.19211265 0.096770532 0.26688108
-0.19047531 0.09724322 0.26818469
-0.18690768 0.096729904 0.26676902
-0.1844973 0.096809536 0.26698864
-0.18384956 0.097829357 0.26980117
-0.1822558 0.098367751 0.27128598
-0.17866699 0.097829357 0.26980117
-0.17704473 0.098367751 0.27128598
-0.17562553 0.099036731 0.27313095
-0.17462416 0.099965192 0.27569154
-0.17280604 0.1004475 0.27702168
-0.16932845 0.099965192 0.27569154
-0.16748479 0.1004475 0.27702168
-0.16771768 0.10221087 0.28188485
-0.16598529 0.10281476 0.28355029
-0.16417275 0.10338834 0.28513214
-0.16053863 0.10281476 0.28355029
-0.15895499 0.10355726 0.28559801
-0.15684597 0.10397754 0.28675708
-0.15540373 0.10486277 0.28919846
-0.15367869 0.10558592 0.2911928
-0.15211658 0.1064499 0.29357556
-0.14808522 0.10558592 0.2911928
-0.14647736 0.1064499 0.29357556
-0.14472076 0.10723761 0.29574794
-0.14425497 0.10903247 0.30069795
-0.14273024 0.11008394 0.30359778
-0.14106707 0.11107027 0.30631796
-0.13689849 0.11008394 0.30359778
-0.13518308 0.11107027 0.30631796
-0.13328043 0.11194322 0.30872545
-0.1311958 0.11269957 0.31081137
-0.13034914 0.11457936 0.3159956
-0.12844548 0.11559749 0.31880346
-0.1264132 0.11654676 0.32142141
-0.12456365 0.11771624 0.32464671
-0.1225812 0.11881696 0.32768235
-0.11832758 0.11771624 0.32464671
-0.11628682 0.11881696 0.32768235
-0.11423492 0.11996721 0.33085462
-0.11215967 0.12115806 0.33413881
-0.10951255 0.12178312 0.33586267
-0.10758707 0.12327299 0.33997151
-0.10546259 0.12462094 0.34368902
-0.10315429 0.1258318 0.3470284
-0.10116562 0.1275264 0.35170192
-0.098747507 0.12877806 0.35515383
-0.096271954 0.13004169 0.35863876
-0.094195053 0.13195756 0.36392251
-0.089382932 0.13004169 0.35863876
-0.087204538 0.13195756 0.36392251
-0.084966563 0.13393952 0.36938849
-0.082482636 0.13568957 0.37421492
-0.079764098 0.13719556 0.37836826
-0.076696083 0.13821554 0.38118124
-0.073584847 0.13925599 0.38405064
-0.071012117 0.14147909 0.39018172
-0.068096198 0.1432281 0.39500523
-0.064961433 0.14469601 0.39905357
-0.061778571 0.14623414 0.40329555
-0.058146741 0.14684424 0.4049781
-0.055126235 0.14919633 0.41146484
-0.051930312 0.15140024 0.41754299
-0.048805445 0.15419754 0.42525759
-0.045280971 0.15612794 0.43058142
-0.041760556 0.15846182 0.43701798
-0.037892561 0.15985098 0.4408491
-0.033948742 0.16122954 0.44465095
-0.029947767 0.16269431 0.44869062
nan nan nan
nan nan nan
nan nan nan
nan nan nan
nan nan nan
nan nan nan
nan nan nan
nan nan nan
nan nan nan
nan nan nan
nan nan nan
0.023056889 0.17235078 0.47532195
0.027469315 0.17139763 0.47269332
0.03188128 0.17071244 0.47080362
0.035972849 0.16869493 0.46523958
0.039876804 0.16634066 0.45874679
0.044458915 0.16700223 0.46057135
0.048665442 0.16626093 0.45852694
0.053136222 0.16647054 0.45910501
0.057727117 0.16699551 0.46055281
0.061970923 0.16651313 0.45922247
0.065845095 0.16516764 0.45551181
0.06937775 0.16318654 0.45004812
0.073499165 0.16274142 0.44882056
0.077773511 0.16266549 0.44861117
0.081648663 0.16180645 0.446242
0.085869975 0.16168486 0.44590667
0.090270437 0.16189612 0.44648933
0.0947624 0.16224487 0.44745114
0.099418595 0.16283239 0.44907141
0.10388705 0.1630763 0.44974411
0.10728139 0.16168199 0.44589877
0.11252608 0.1630763 0.44974411
0.11584657 0.16168199 0.44589877
0.12018451 0.16175649 0.44610423
0.1228622 0.15966825 0.44034514
0.1268561 0.15937258 0.43952969
0.13192853 0.16040729 0.44238329
0.13598615 0.16018206 0.44176218
0.13885507 0.15861262 0.43743387
0.14233854 0.15781677 0.43523896
0.1452105 0.15640764 0.43135273
0.1494599 0.15651916 0.43166035
0.15338254 0.15629174 0.43103316
0.15775156 0.15651916 0.43166035
0.16166218 0.15629174 0.43103316
0.16677806 0.15721183 0.43357065
0.17154235 0.15776376 0.43509275
0.17723249 0.15912062 0.43883485
0.18204369 0.15964371 0.44027743
nan nan nan
nan nan nan
nan nan nan
nan nan nan
0.28920189 0.22722583 0.62666047
0.29379287 0.22612694 0.62362993
0.29562759 0.2229929 0.6149866
0.29929397 0.2213362 0.61041766
0.30314463 0.21987684 0.60639292
0.31101936 0.2213362 0.61041766
0.31479272 0.21987684 0.60639292
0.31863034 0.21851458 0.60263598
0.32146755 0.21652709 0.59715468
0.32947883 0.21803321 0.60130841
0.33614668 0.21861377 0.60290951
0.34102923 0.21803321 0.60130841
0.34604707 0.21755706 0.59999526
0.35056522 0.21678752 0.59787291
0.35507125 0.21603537 0.59579861
0.36204964 0.21678752 0.59787291
0.36651582 0.21603537 0.59579861
0.36918753 0.21426491 0.59091592
0.37156478 0.21237975 0.5857169
0.37457448 0.21090695 0.58165509
0.38281572 0.21237975 0.5857169
0.3857474 0.21090695 0.58165509
0.38872808 0.20950259 0.57778203
0.39263481 0.20862982 0.57537502
0.40350276 0.21142885 0.58309442
0.40661332 0.21014215 0.57954586
0.41221631 0.21016093 0.57959759
0.4191986 0.21087302 0.58156151
0.42334968 0.21016093 0.57959759
0.4316949 0.21152234 0.58335227
0.43766031 0.21169777 0.58383602
0.44244543 0.21130505 0.582753
0.44938147 0.21193658 0.58449465
0.4523865 0.21072146 0.5811435
0.45631552 0.20996109 0.57904649
-0.2048324 0.096876711 0.26024526
-0.20239751 0.096907645 0.26032835
-0.19983341 0.096876711 0.26024526
-0.1972829 0.096851684 0.260178
-0.19719213 0.098049037 0.26339453
-0.1961564 0.098801553 0.26541606
-0.19213264 0.098049037 0.26339453
-0.19105807 0.098801553 0.26541606
-0.19024755 0.099712804 0.26786402
-0.18836015 0.1000769 0.2688421
-0.18510221 0.099712804 0.26786402
-0.18210962 0.099483415 0.2672478
-0.18242908 0.10108264 0.27154386
-0.18110767 0.10180589 0.27348676
-0.17721303 0.10108264 0.27154386
-0.17585431 0.10180589 0.27348676
-0.17474131 0.10269547 0.27587649
-0.17272632 0.10307418 0.27689385
-0.16933829 0.10263257 0.27570754
-0.16744262 0.10309581 0.27695194
-0.16662923 0.10425109 0.28005546
-0.16642025 0.10582865 0.28429332
-0.16454342 0.10638054 0.28577593
-0.1609593 0.10582865 0.28429332
-0.15905403 0.10638054 0.28577593
