# .PCD v0.7 - Point Cloud Data file format
VERSION 0.7
FIELDS x y z
SIZE 4 4 4
TYPE F F F
COUNT 1 1 1
WIDTH 1512
HEIGHT 1
VIEWPOINT 0 0 0 1 0 0 0
POINTS 1512
DATA ascii
-0.018165726 -0.041927464 0.15828383
-0.016682403 -0.042020403 0.15863469
-0.015209996 -0.042162284 0.15917033
-0.013669142 -0.042124938 0.15902933
-0.012121919 -0.042056091 0.15876943
-0.010594465 -0.042045895 0.15873094
-0.0090223597 -0.041825276 0.15789807
-0.0074774921 -0.041667286 0.15730162
-0.0059915888 -0.041841056 0.15795764
-0.0045313402 -0.042372562 0.15996416
-0.0031365305 -0.044375181 0.16752443
-0.0015813848 -0.045938782 0.1734273
8.7487031e-05 -0.047687117 0.18002759
0.0017499438 -0.045938782 0.1734273
0.0034719536 -0.046696607 0.17628823
0.0052922983 -0.047846623 0.18062975
0.0071543432 -0.048712745 0.18389951
0.0089914007 -0.049099442 0.18535936
0.010843357 -0.049426228 0.18659304
0.012724968 -0.049776312 0.18791467
0.014560522 -0.049881641 0.18831232
0.016398389 -0.049970757 0.18864873
0.0183632 -0.050390471 0.19023325
0.02041496 -0.050951239 0.19235024
0.022465467 -0.051416069 0.19410506
0.024511991 -0.051801238 0.19555914
0.026344497 -0.051711496 0.19522035
0.028334957 -0.051923119 0.19601926
0.030503603 -0.052414551 0.19787452
0.032886662 -0.053195164 0.20082147
0.035299737 -0.053935144 0.20361502
0.037450448 -0.054217611 0.2046814
0.038504943 -0.05296405 0.19994897
0.039895382 -0.052269723 0.19732775
0.041289065 -0.051642429 0.19495961
0.043309961 -0.051820021 0.19563004
0.04572878 -0.052439161 0.19796742
0.048235144 -0.053105254 0.20048204
0.050924581 -0.053914022 0.20353529
0.053728249 -0.05477947 0.2068025
0.05638133 -0.055435143 0.20927779
0.05932685 -0.056323316 0.21263081
0.067516282 -0.061965134 0.23392971
0.070701309 -0.062798537 0.23707594
0.074311242 -0.063945562 0.24140617
0.07768622 -0.064827107 0.24473418
0.080919787 -0.065542348 0.24743433
0.084000081 -0.066096164 0.2495251
0.087107815 -0.06664025 0.25157914
0.08997947 -0.066979244 0.25285888
0.093540005 -0.067799717 0.25595632
0.097024105 -0.068524197 0.25869137
0.10010064 -0.068931833 0.26023027
0.10199326 -0.068524197 0.25869137
0.10509935 -0.068931833 0.26023027
0.10159551 -0.06508597 0.24571142
0.10484936 -0.06564565 0.24782433
0.10967092 -0.067140244 0.2534667
0.11273829 -0.067519337 0.25489783
0.11431919 -0.067010984 0.25297871
0.11616085 -0.066673458 0.25170448
0.11917861 -0.067010984 0.25297871
0.12099578 -0.066673458 0.25170448
0.12344409 -0.066690117 0.25176737
0.12984844 -0.068802305 0.25974128
0.14727029 -0.076562636 0.28903794
0.14954831 -0.076308511 0.28807858
0.15282238 -0.076562636 0.28903794
0.15508194 -0.076308511 0.28807858
0.15619731 -0.075510152 0.28506461
0.15675078 -0.074472338 0.28114671
0.1627665 -0.076020852 0.28699261
0.16215128 -0.074472338 0.28114671
0.16827929 -0.076020852 0.28699261
0.16680668 -0.074141175 0.2798965
0.17279272 -0.075583719 0.28534234
0.17391692 -0.074887723 0.28271484
0.1782738 -0.075583719 0.28534234
0.17934753 -0.074887723 0.28271484
nan nan nan
nan nan nan
nan nan nan
nan nan nan
nan nan nan
nan nan nan
nan nan nan
nan nan nan
nan nan nan
nan nan nan
nan nan nan
nan nan nan
nan nan nan
nan nan nan
nan nan nan
nan nan nan
-0.1115136 -0.036161873 0.14168113
-0.10922167 -0.035856184 0.14048345
-0.10223292 -0.033981647 0.13313907
-0.098734677 -0.033234544 0.13021195
-0.099675477 -0.033981647 0.13313907
-0.096233465 -0.033234544 0.13021195
-0.092718191 -0.032442138 0.12710732
-0.091282055 -0.032365784 0.12680817
-0.090150952 -0.03239698 0.1269304
-0.088958904 -0.032406833 0.12696899
-0.087501124 -0.032318804 0.12662411
-0.086328365 -0.032335058 0.12668778
-0.085068829 -0.032318804 0.12662411
-0.083894841 -0.032335058 0.12668778
-0.083721966 -0.032743312 0.12828732
-0.083135858 -0.032999743 0.129292
-0.081257716 -0.032743312 0.12828732
-0.080481067 -0.032929674 0.12901749
-0.079951294 -0.033224452 0.13017242
-0.079048462 -0.033371113 0.13074702
-0.078065053 -0.033487935 0.13120472
-0.076536968 -0.033371113 0.13074702
-0.075544767 -0.033487935 0.13120472
-0.074674577 -0.033663731 0.13189349
-0.073670015 -0.033783965 0.13236457
-0.072596692 -0.033876341 0.13272649
-0.071182661 -0.033810191 0.13246731
-0.069984242 -0.033845909 0.13260725
-0.069053188 -0.034014646 0.13326836
-0.068715148 -0.034487389 0.13512056
-0.067639306 -0.034600899 0.1355653
-0.066605903 -0.034741014 0.13611425
-0.065035254 -0.034600899 0.1355653
-0.063991316 -0.034741014 0.13611425
-0.063040838 -0.034938768 0.13688906
-0.062009301 -0.035099071 0.13751711
-0.061446685 -0.035537548 0.13923505
-0.06060525 -0.035830691 0.14038357
-0.059568115 -0.036018841 0.14112075
-0.05870365 -0.036322594 0.14231083
-0.056857359 -0.036018841 0.14112075
-0.055970028 -0.036322594 0.14231083
-0.054989953 -0.036579851 0.14331876
-0.054193512 -0.036975607 0.14486933
-0.053694259 -0.037600338 0.14731701
-0.054079007 -0.038894676 0.15238817
-0.05337999 -0.039459873 0.1546026
-0.052281324 -0.03975353 0.15575314
-0.051121037 -0.040016249 0.15678246
-0.049939942 -0.040278133 0.15780853
-0.046139389 -0.038377613 0.15036234
-0.044925231 -0.038575087 0.15113604
-0.043251108 -0.038377613 0.15036234
-0.04202209 -0.038575087 0.15113604
-0.040795732 -0.03878922 0.15197501
-0.039623674 -0.039072793 0.15308604
-0.038409386 -0.039334975 0.15411325
-0.037173267 -0.039594922 0.15513171
-0.035816327 -0.039742503 0.15570994
-0.034457222 -0.039900444 0.15632875
-0.033037145 -0.03999896 0.15671472
-0.031621236 -0.040112164 0.15715826
-0.030186275 -0.040211331 0.1575468
-0.028745865 -0.040313341 0.15794645
-0.027385069 -0.040544573 0.15885243
-0.026098261 -0.040919099 0.16031981
-0.024743013 -0.041226551 0.1615244
-0.023298696 -0.041416805 0.16226982
-0.021789122 -0.041510027 0.16263504
-0.020309497 -0.041679099 0.16329746
-0.018753355 -0.041706301 0.16340405
-0.017216867 -0.041786171 0.16371697
-0.016276369 -0.043473981 0.17032975
-0.014690803 -0.043623488 0.17091551
-0.013099127 -0.04379018 0.17156862
-0.011521197 -0.044057414 0.17261563
-0.0098616285 -0.044049829 0.1725859
-0.0081900423 -0.043974638 0.17229132
-0.0065126335 -0.043822195 0.17169406
-0.0048247348 -0.043471873 0.17032149
-0.0032098747 -0.043757804 0.17144178
-0.0015990169 -0.044758119 0.17536098
8.8173831e-05 -0.046309914 0.18144086
0.0017694554 -0.044758119 0.17536098
0.0035734335 -0.046309914 0.18144086
0.0055195233 -0.048082322 0.1883851
0.0075685531 -0.049654953 0.19454661
0.0096425628 -0.050736271 0.19878319
0.011720799 -0.051478721 0.20169209
0.013816311 -0.052075684 0.20403098
0.015979402 -0.052747421 0.20666282
0.017285053 -0.050753072 0.19884901
0.019377401 -0.051235672 0.20073983
0.021495799 -0.051693588 0.20253393
0.023551634 -0.051937532 0.20348969
0.025616487 -0.052162454 0.20437093
0.027486529 -0.051986903 0.20368312
0.029561453 -0.052196439 0.20450409
0.031766158 -0.052594736 0.20606461
0.034133669 -0.053200066 0.20843628
0.036581263 -0.053856231 0.2110071
0.038872294 -0.05422511 0.21245235
0.04060911 -0.053822644 0.2108755
0.041843299 -0.052823883 0.20696239
0.043661185 -0.052619167 0.20616032
0.046073459 -0.053117488 0.20811272
0.048737705 -0.053852774 0.21099356
0.051311329 -0.054433223 0.21326773
0.053958263 -0.055043887 0.2156603
0.056990921 -0.055988349 0.21936068
0.059991945 -0.056835499 0.22267978
0.062931314 -0.057567928 0.22554941
0.064269349 -0.056835499 0.22267978
0.067263849 -0.057567928 0.22554941
0.07835909 -0.06497138 0.25455591
0.081883475 -0.065839395 0.25795677
0.085161738 -0.066464335 0.26040527
0.088456295 -0.067065969 0.26276246
0.092336096 -0.068065636 0.26667911
0.096137837 -0.068955347 0.270165
0.099836476 -0.069726303 0.27318555
0.10348109 -0.070420995 0.27590737
0.10666436 -0.07077489 0.27729389
0.10878094 -0.070420995 0.27590737
0.11199084 -0.07077489 0.27729389
0.11435024 -0.070587322 0.27655903
0.11701857 -0.070594661 0.27658775
0.11491141 -0.067784667 0.2655783
0.11976694 -0.069114715 0.27078938
0.12174758 -0.068764463 0.26941711
0.12321205 -0.068143308 0.26698345
0.12692277 -0.068764463 0.26941711
0.12834047 -0.068143308 0.26698345
0.13063058 -0.068000615 0.26642439
0.1362294 -0.069552697 0.27250537
0.1401087 -0.070184901 0.27498233
0.14391972 -0.070760138 0.2772361
0.16006678 -0.077269487 0.30273953
0.1600789 -0.075896658 0.29736084
nan nan nan
nan nan nan
nan nan nan
nan nan nan
nan nan nan
nan nan nan
nan nan nan
nan nan nan
0.18587975 -0.07593634 0.29751629
nan nan nan
nan nan nan
nan nan nan
nan nan nan
nan nan nan
nan nan nan
nan nan nan
nan nan nan
nan nan nan
nan nan nan
nan nan nan
nan nan nan
nan nan nan
nan nan nan
nan nan nan
nan nan nan
nan nan nan
-0.11463885 -0.035769265 0.14565185
-0.11103686 -0.035073373 0.14281818
-0.10204592 -0.03263656 0.13289553
-0.097751342 -0.031659048 0.12891512
-0.099493153 -0.03263656 0.13289553
-0.093951434 -0.031219229 0.12712418
-0.092891991 -0.0312736 0.12734558
-0.092219114 -0.031461306 0.12810992
-0.090445831 -0.0312736 0.12734558
-0.088949658 -0.031177878 0.12695579
-0.087341323 -0.031039635 0.12639287
-0.086510994 -0.031177878 0.12695579
-0.08491347 -0.031039635 0.12639287
-0.083998159 -0.031150373 0.1268438
-0.083655193 -0.031479746 0.128185
-0.082509533 -0.031512398 0.12831795
-0.080875993 -0.031356871 0.12768465
-0.080044702 -0.031512398 0.12831795
-0.079537526 -0.031802379 0.12949875
-0.078654021 -0.031948708 0.1300946
-0.077050015 -0.031802379 0.12949875
-0.076155059 -0.031948708 0.1300946
-0.075156398 -0.032055687 0.13053022
-0.074312925 -0.032233611 0.13125472
-0.073793665 -0.032560725 0.13258673
-0.072622649 -0.032606706 0.13277395
-0.071246833 -0.032560725 0.13258673
-0.070072219 -0.032606706 0.13277395
-0.069128633 -0.03276388 0.13341397
-0.068789981 -0.033219118 0.13526769
-0.06772925 -0.033336479 0.13574558
-0.066697598 -0.033473037 0.13630164
-0.065121748 -0.033336479 0.13574558
-0.064079411 -0.033473037 0.13630164
-0.063038133 -0.033615854 0.13688318
-0.061919194 -0.03372246 0.13731728
-0.061655693 -0.034309734 0.13970865
-0.060825445 -0.034600738 0.14089362
-0.05984557 -0.034817938 0.14177805
-0.058936149 -0.035087194 0.14287446
-0.057122186 -0.034817938 0.14177805
-0.056191705 -0.035087194 0.14287446
-0.055184484 -0.035320811 0.14382575
-0.054373994 -0.035695579 0.1453518
-0.053907361 -0.036321778 0.14790167
-0.055002306 -0.038062513 0.15498991
-0.054699361 -0.038905822 0.15842384
-0.053899668 -0.039433956 0.16057441
-0.049702253 -0.037434146 0.15243122
-0.04853344 -0.037663229 0.15336403
-0.047355562 -0.037899394 0.15432569
-0.045587506 -0.037663229 0.15336403
-0.044391152 -0.037899394 0.15432569
-0.043185279 -0.038143463 0.15531954
-0.042067762 -0.038485833 0.15671366
-0.040863354 -0.038771171 0.15787555
-0.039626669 -0.039046682 0.15899745
-0.03827434 -0.039225776 0.15972671
-0.036842901 -0.039335359 0.16017292
-0.035382871 -0.039422639 0.16052832
-0.033972986 -0.039576288 0.16115397
-0.032631941 -0.039828621 0.16218148
-0.031191794 -0.039979234 0.16279477
-0.029726561 -0.040111892 0.16333495
-0.02834589 -0.040379796 0.16442585
-0.027020611 -0.040762875 0.16598573
-0.025662905 -0.041141998 0.16752954
-0.024246519 -0.041471489 0.16887119
-0.023676312 -0.043399274 0.17672111
-0.022058718 -0.043556653 0.17736197
-0.020349868 -0.043545116 0.17731497
-0.01861915 -0.043480389 0.17705141
-0.016969627 -0.043611325 0.17758459
-0.015307451 -0.043735374 0.17808971
-0.013666265 -0.043958146 0.17899683
-0.01204683 -0.044325057 0.1804909
-0.010348334 -0.044475529 0.1811036
-0.0086268103 -0.044567831 0.18147947
-0.0068809642 -0.044549413 0.18140446
-0.0050843996 -0.044078797 0.17948812
-0.003342503 -0.043842409 0.17852555
-0.001636885 -0.04408513 0.1795139
8.9041707e-05 -0.044996932 0.18322675
0.0018113599 -0.04408513 0.1795139
0.0036086061 -0.044996932 0.18322675
0.0055494066 -0.046514202 0.18940504
0.0076575568 -0.048338711 0.19683442
0.0098878797 -0.050059251 0.20384043
0.012195077 -0.051535942 0.2098535
0.014505876 -0.052606814 0.21421406
0.01691387 -0.053720355 0.21874838
0.01928949 -0.054496359 0.22190826
0.02161476 -0.054989845 0.22391772
0.023865433 -0.055221416 0.22486067
0.026174752 -0.055538986 0.22615382
0.026960164 -0.052822158 0.21509093
0.029001262 -0.052777167 0.21490774
0.031176575 -0.052966177 0.2156774
0.033294477 -0.053040177 0.2159787
0.035520323 -0.053267375 0.21690385
0.037825987 -0.05358246 0.21818689
0.040227376 -0.053992953 0.21985839
0.04228387 -0.053922676 0.21957222
0.044167146 -0.053648666 0.21845646
0.046286937 -0.053673759 0.21855865
0.048743963 -0.054070778 0.2201753
0.051421352 -0.054669056 0.22261149
0.053942144 -0.055059727 0.22420229
0.056593463 -0.055548534 0.22619268
0.059740428 -0.056469694 0.22994365
0.063022777 -0.057448596 0.23392971
0.066147372 -0.058221247 0.23707594
0.069674127 -0.059284668 0.24140617
0.070701309 -0.058221247 0.23707594
0.074311242 -0.059284668 0.24140617
0.07768622 -0.060101964 0.24473418
0.088840485 -0.066712953 0.27165401
0.09281154 -0.067706533 0.27569985
0.097071849 -0.068850145 0.28035662
0.10299434 -0.071079135 0.28943303
0.10685546 -0.071805745 0.29239181
0.11087439 -0.072598487 0.29561982
0.11395258 -0.072751038 0.29624099
0.1156545 -0.072038889 0.29334116
0.11964301 -0.072751038 0.29624099
0.12128922 -0.072038889 0.29334116
0.1229351 -0.071358889 0.2905722
0.12621324 -0.071635514 0.2916986
0.1264303 -0.070200451 0.28585505
0.12884595 -0.070021205 0.28512517
0.13063328 -0.069515079 0.28306425
0.13337548 -0.06952735 0.28311419
0.13607061 -0.069515079 0.28306425
0.13881375 -0.06952735 0.28311419
0.14248648 -0.069995791 0.28502169
0.14727029 -0.070982106 0.28903794
0.14954831 -0.070746504 0.28807858
0.15072155 -0.070006333 0.28506461
0.15508194 -0.070746504 0.28807858
nan nan nan
nan nan nan
nan nan nan
nan nan nan
nan nan nan
nan nan nan
nan nan nan
nan nan nan
nan nan nan
nan nan nan
nan nan nan
nan nan nan
nan nan nan
nan nan nan
nan nan nan
nan nan nan
nan nan nan
nan nan nan
nan nan nan
nan nan nan
nan nan nan
nan nan nan
nan nan nan
nan nan nan
nan nan nan
nan nan nan
-0.11918196 -0.035725005 0.15142401
-0.11378155 -0.034527548 0.14634846
-0.10184154 -0.03129084 0.13262936
-0.10619752 -0.033042513 0.140054
-0.099675477 -0.031411096 0.13313907
-0.094686933 -0.030226812 0.12811936
-0.092718191 -0.029988043 0.12710732
-0.092225917 -0.030226812 0.12811936
-0.090276614 -0.029988043 0.12710732
-0.088703372 -0.029869361 0.12660427
-0.087120362 -0.029744044 0.12607311
-0.086271457 -0.029869361 0.12660427
-0.084698647 -0.029744044 0.12607311
-0.083606042 -0.029786171 0.12625167
-0.082626961 -0.029870581 0.12660944
-0.0811809 -0.029786171 0.12625167
-0.080194943 -0.029870581 0.12660944
-0.07932324 -0.030000798 0.12716138
-0.079287782 -0.030456312 0.12909213
-0.078535698 -0.030646652 0.12989891
-0.07680808 -0.030456312 0.12909213
-0.076040499 -0.030646652 0.12989891
-0.075544767 -0.030954732 0.13120472
-0.074674577 -0.031117229 0.13189349
-0.073670015 -0.031228371 0.13236457
-0.072141066 -0.031117229 0.13189349
-0.071127452 -0.031228371 0.13236457
-0.070047177 -0.031313755 0.13272649
-0.06974382 -0.031756062 0.13460125
-0.068870775 -0.031950779 0.13542657
-0.067750514 -0.032036092 0.13578819
-0.066662177 -0.032140151 0.13622925
-0.065142184 -0.032036092 0.13578819
-0.063937783 -0.032086156 0.13600038
-0.062799916 -0.032172397 0.13636592
-0.062307633 -0.032600086 0.13817872
-0.06147445 -0.032864146 0.13929796
-0.060647558 -0.03314339 0.14048158
-0.059755411 -0.03339887 0.14156446
-0.058887787 -0.033680279 0.14275722
-0.057036128 -0.03339887 0.14156446
-0.056145594 -0.033680279 0.14275722
-0.055189703 -0.033935584 0.14383936
-0.054451402 -0.034341227 0.14555873
-0.053990398 -0.034947742 0.14812951
-0.055746183 -0.037060838 0.15708607
-0.05337999 -0.036474921 0.1546026
-0.052281324 -0.036746364 0.15575314
-0.051121037 -0.036989208 0.15678246
-0.049939942 -0.037231285 0.15780853
-0.048850488 -0.037558973 0.15919746
-0.046908632 -0.037231285 0.15780853
-0.045792498 -0.037558973 0.15919746
-0.044589862 -0.0378359 0.16037124
-0.043469992 -0.038205381 0.16193734
-0.042219527 -0.038483255 0.16311511
-0.040945426 -0.038760163 0.16428882
-0.039488006 -0.03887878 0.1647916
-0.038048491 -0.039025664 0.16541418
-0.036585461 -0.039160181 0.16598435
-0.035303965 -0.03951012 0.16746759
-0.033888467 -0.039736338 0.16842644
-0.032410089 -0.039907809 0.16915324
-0.030936945 -0.040104162 0.1699855
-0.029537471 -0.040423214 0.17133784
-0.029239867 -0.042376839 0.17961846
-0.027780108 -0.042785544 0.18135081
-0.026346333 -0.043291628 0.18349589
-0.024764499 -0.043609541 0.18484339
-0.023113409 -0.04384518 0.18584217
-0.021340391 -0.043869603 0.1859457
-0.019527843 -0.043809813 0.18569227
-0.017778466 -0.043893967 0.18604897
-0.016042296 -0.044033177 0.18663904
-0.014336172 -0.044300262 0.18777108
-0.0126251 -0.044626717 0.1891548
-0.010848674 -0.044793077 0.18985994
-0.0090540145 -0.044936165 0.19046643
-0.0072358022 -0.045005225 0.19075914
-0.0053537549 -0.044589445 0.18899682
-0.0035058353 -0.044177148 0.18724926
-0.0016997615 -0.043979008 0.18640943
9.1435075e-05 -0.044390064 0.18815173
0.0018809383 -0.043979008 0.18640943
0.0037056024 -0.044390064 0.18815173
0.0056502898 -0.045498099 0.19284825
0.007787955 -0.047229335 0.20018625
0.010123374 -0.049236819 0.20869519
0.012621355 -0.051240716 0.21718891
0.015146724 -0.052771602 0.22367771
0.017803444 -0.054322954 0.23025328
0.020399658 -0.055367276 0.23467974
0.022870146 -0.055896495 0.23692288
0.02530073 -0.056241233 0.23838408
0.027828306 -0.056726463 0.24044077
0.030344643 -0.057116173 0.24209262
0.032797866 -0.057340082 0.24304168
0.035148408 -0.057366643 0.24315426
0.035045005 -0.053634278 0.22733426
0.037213184 -0.05361234 0.22724126
0.039436422 -0.053667754 0.22747613
0.041924343 -0.054058649 0.229133
0.044149932 -0.054089162 0.22926232
0.04635613 -0.054094147 0.22928345
0.049055248 -0.054647796 0.23163015
0.051786344 -0.055187486 0.23391767
0.054570705 -0.055736698 0.23624557
0.057185404 -0.056075688 0.23768242
0.059742715 -0.056334548 0.23877962
0.062855549 -0.05707873 0.24193391
0.066284515 -0.058046695 0.24603671
0.069636591 -0.058883008 0.24958152
0.073469378 -0.060056601 0.25455591
0.074430756 -0.058883008 0.24958152
0.07835909 -0.060056601 0.25455591
0.081883475 -0.060858954 0.25795677
0.085161738 -0.061436627 0.26040527
0.088456295 -0.06199275 0.26276246
0.10123505 -0.06898044 0.29238048
0.10837561 -0.071852826 0.30455539
0.11217389 -0.072416551 0.30694479
0.11611357 -0.073040344 0.30958882
0.11873824 -0.072826453 0.3086822
0.11998447 -0.071798123 0.30432352
0.12466766 -0.072826453 0.3086822
0.12583016 -0.071798123 0.30432352
0.1267132 -0.070660643 0.29950219
0.12976161 -0.070754349 0.2998994
0.13339308 -0.071155027 0.30159768
0.13684286 -0.071443804 0.3028217
0.13578244 -0.069414839 0.29422173
0.13965258 -0.069937833 0.29643852
0.14143407 -0.069414839 0.29422173
0.14534681 -0.069937833 0.29643852
0.14981513 -0.07070294 0.29968148
0.15425152 -0.071424417 0.30273953
0.15436694 -0.070155442 0.29736084
nan nan nan
0.1600789 -0.070155442 0.29736084
nan nan nan
nan nan nan
nan nan nan
nan nan nan
nan nan nan
nan nan nan
nan nan nan
nan nan nan
nan nan nan
nan nan nan
nan nan nan
nan nan nan
nan nan nan
nan nan nan
nan nan nan
nan nan nan
nan nan nan
nan nan nan
nan nan nan
nan nan nan
nan nan nan
nan nan nan
nan nan nan
nan nan nan
nan nan nan
nan nan nan
-0.12247079 -0.035208706 0.15560254
-0.10765591 -0.03133196 0.13846953
-0.10204592 -0.030070713 0.13289553
-0.10499609 -0.03133196 0.13846953
-0.099493153 -0.030070713 0.13289553
-0.093951434 -0.02876481 0.12712418
-0.092084728 -0.0285645 0.12623891
-0.091509536 -0.02876481 0.12712418
-0.089659832 -0.0285645 0.12623891
-0.08827702 -0.028509479 0.12599576
-0.086786754 -0.028417744 0.12559034
-0.08543469 -0.028369317 0.12537631
-0.084123723 -0.028333342 0.12521733
-0.083407424 -0.028499523 0.12595175
-0.082208887 -0.028503386 0.12596883
-0.08098805 -0.028499523 0.12595175
-0.079789177 -0.028503386 0.12596883
-0.079324804 -0.0287738 0.1271639
-0.079108723 -0.02914414 0.1288006
-0.07861799 -0.029423455 0.13003501
-0.077050015 -0.029302113 0.12949875
-0.076155059 -0.029436938 0.1300946
-0.075350046 -0.029611606 0.13086654
-0.074312925 -0.029699441 0.13125472
-0.073288262 -0.029795371 0.13167867
-0.071791679 -0.029699441 0.13125472
-0.070758872 -0.029795371 0.13167867
-0.069804683 -0.029928496 0.13226701
-0.069551229 -0.030372567 0.13422956
-0.068648286 -0.030544426 0.13498907
-0.067596547 -0.030655423 0.13547961
-0.06557861 -0.030323999 0.1340149
-0.064508177 -0.03042621 0.13446662
-0.063488729 -0.030557131 0.13504522
-0.062491339 -0.030704353 0.13569586
-0.062109862 -0.031166917 0.13774012
-0.061239216 -0.031398803 0.13876493
-0.060415428 -0.031665567 0.13994388
-0.059589595 -0.031943377 0.14117163
-0.057727277 -0.031665567 0.13994388
-0.056877859 -0.031943377 0.14117163
-0.056073036 -0.032260407 0.14257273
-0.055210285 -0.032559149 0.143893
-0.054549333 -0.032995291 0.14582051
-0.055185523 -0.034259703 0.15140848
-0.055002306 -0.035070084 0.15498991
-0.054699361 -0.03584709 0.15842384
-0.053899668 -0.036333706 0.16057441
-0.052871529 -0.036690451 0.16215102
-0.051735759 -0.036991898 0.16348325
-0.049756803 -0.036690451 0.16215102
-0.048595443 -0.036991898 0.16348325
-0.04743965 -0.037317853 0.16492379
-0.046268951 -0.037654199 0.16641024
-0.04510238 -0.038018085 0.16801842
-0.043792371 -0.03828359 0.16919179
-0.042391304 -0.038486887 0.17009024
-0.040905315 -0.038626287 0.17070632
-0.039436329 -0.038794052 0.17144774
-0.037976973 -0.038986325 0.17229749
-0.036784291 -0.039482355 0.17448965
-0.035293449 -0.039690435 0.17540924
-0.033759091 -0.039867979 0.17619389
-0.033758037 -0.041970588 0.18548623
-0.032227438 -0.042299878 0.1869415
-0.030586101 -0.042514112 0.18788829
-0.029038223 -0.04289325 0.18956389
-0.02754594 -0.043410733 0.19185086
-0.02590741 -0.043755412 0.19337414
-0.024212504 -0.044050749 0.19467938
-0.022427358 -0.044217609 0.19541681
-0.020535506 -0.044185355 0.19527426
-0.018663235 -0.044192977 0.19530796
-0.016836056 -0.044321015 0.1958738
-0.015042223 -0.044580087 0.19701874
-0.01322731 -0.044842251 0.19817737
-0.011379047 -0.045060489 0.19914186
-0.0094922725 -0.045183599 0.19968593
-0.0075896075 -0.045274254 0.20008658
-0.0056347726 -0.045009665 0.19891724
-0.0036993115 -0.044707756 0.19758298
-0.0017877675 -0.044363342 0.19606087
9.5357915e-05 -0.044400256 0.196224
0.0019783247 -0.044363342 0.19606087
0.0038645838 -0.044400256 0.196224
0.0058195293 -0.044943426 0.19862449
0.0079432018 -0.046199765 0.20417681
0.010301527 -0.048053179 0.21236785
0.012943584 -0.050398726 0.22273384
0.015646055 -0.052280802 0.23105155
0.018494705 -0.054123092 0.23919342
0.021287456 -0.055412766 0.24489304
0.023928834 -0.056090973 0.24789035
0.026487956 -0.056471065 0.24957013
0.029279761 -0.057242982 0.25298157
0.032055032 -0.057866756 0.25573829
0.034776967 -0.058312308 0.25770739
0.037298784 -0.058385402 0.25803041
0.039517555 -0.058004566 0.25634733
0.041874617 -0.057859484 0.25570616
0.044273954 -0.057785656 0.25537989
0.044217695 -0.05468281 0.24166706
0.046623815 -0.054782748 0.24210873
0.049065147 -0.054912601 0.24268261
0.051579151 -0.05510832 0.24354756
0.055041153 -0.056255978 0.24861956
0.057959713 -0.056775853 0.25091714
0.060895257 -0.057270195 0.25310186
0.063502729 -0.057429895 0.25380763
0.066384129 -0.057816353 0.25551555
0.06937959 -0.058271062 0.25752512
0.07249555 -0.058792189 0.25982818
0.076081008 -0.059646703 0.26360467
0.077486537 -0.058792189 0.25982818
0.081144534 -0.059646703 0.26360467
0.084958412 -0.060560629 0.26764369
0.088840485 -0.061468057 0.27165401
0.09281154 -0.062383525 0.27569985
0.097071849 -0.063437223 0.28035662
0.10990027 -0.069882244 0.30883995
0.1165531 -0.072164841 0.31892774
0.1205546 -0.072730981 0.32142976
0.12270857 -0.072182052 0.31900379
0.12362964 -0.070952289 0.31356895
0.12883624 -0.072182052 0.31900379
0.1296529 -0.070952289 0.31356895
0.12953521 -0.069278643 0.30617237
0.13178247 -0.068916053 0.30456993
0.13341109 -0.068252727 0.30163839
0.13808119 -0.069140539 0.30556202
0.14263426 -0.069934003 0.30906868
0.14811088 -0.07113871 0.31439283
0.14610848 -0.068774819 0.30394578
0.15046404 -0.06943769 0.30687526
0.15560228 -0.070429325 0.31125775
0.16104773 -0.071520023 0.31607801
nan nan nan
nan nan nan
nan nan nan
nan nan nan
nan nan nan
nan nan nan
nan nan nan
nan nan nan
nan nan nan
nan nan nan
nan nan nan
nan nan nan
nan nan nan
nan nan nan
nan nan nan
nan nan nan
nan nan nan
nan nan nan
nan nan nan
nan nan nan
nan nan nan
nan nan nan
nan nan nan
nan nan nan
nan nan nan
nan nan nan
nan nan nan
nan nan nan
nan nan nan
-0.11918196 -0.032801423 0.15142401
-0.1088878 -0.030338455 0.140054
-0.10184154 -0.028730134 0.13262936
-0.10619752 -0.030338455 0.140054
-0.099293888 -0.028730134 0.13262936
-0.092907518 -0.027231624 0.12571166
-0.091258444 -0.027100457 0.12510616
-0.090492748 -0.027231624 0.12571166
-0.087837629 -0.026790069 0.12367329
-0.087289251 -0.026987769 0.12458594
-0.086310491 -0.027056046 0.12490114
-0.084896117 -0.026987769 0.12458594
-0.0839113 -0.027056046 0.12490114
-0.083299145 -0.027248207 0.12578823
-0.082012475 -0.027222136 0.12566787
-0.080882907 -0.027248207 0.12578823
-0.079598546 -0.027222136 0.12566787
-0.079085201 -0.027463002 0.12677979
-0.079287782 -0.027963897 0.12909213
-0.078535698 -0.02813866 0.12989891
-0.07680808 -0.027963897 0.12909213
-0.076040499 -0.02813866 0.12989891
-0.075161211 -0.02827723 0.13053858
-0.074026808 -0.02832289 0.13074937
-0.072888181 -0.028368481 0.13095984
-0.071515277 -0.02832289 0.13074937
-0.070372604 -0.028368481 0.13095984
-0.06950438 -0.028528379 0.131698
-0.069140591 -0.028905096 0.13343705
-0.067627095 -0.028806308 0.13298102
-0.066561222 -0.028898057 0.13340457
-0.065072693 -0.028806308 0.13298102
-0.063998684 -0.028898057 0.13340457
-0.062976807 -0.029017579 0.13395633
-0.062042419 -0.029183237 0.13472107
-0.061844412 -0.029709704 0.13715144
-0.061063912 -0.029973168 0.1383677
-0.060331862 -0.030272672 0.13975032
-0.059603836 -0.030587865 0.14120537
-0.057647429 -0.030272672 0.13975032
-0.056891453 -0.030587865 0.14120537
-0.056088574 -0.030892622 0.14261225
-0.055189703 -0.03115844 0.14383936
-0.054451402 -0.031530891 0.14555873
-0.055418584 -0.032936573 0.15204792
-0.055746183 -0.034027938 0.15708607
-0.056026943 -0.035150636 0.16226888
-0.055781174 -0.035997789 0.16617967
-0.055057801 -0.036577556 0.16885608
-0.054058168 -0.037003409 0.17082199
-0.05181428 -0.036577556 0.16885608
-0.050776888 -0.037003409 0.17082199
-0.04951949 -0.037292022 0.17215434
-0.04826108 -0.037599787 0.1735751
-0.046945866 -0.037883732 0.17488591
-0.045529645 -0.038104217 0.17590375
-0.043963715 -0.038211577 0.17639937
-0.042447999 -0.038372934 0.17714424
-0.040997289 -0.038608987 0.17823395
-0.040036205 -0.039346803 0.18164
-0.038653314 -0.039718419 0.18335553
-0.039227344 -0.042232342 0.19496077
-0.037435021 -0.042322971 0.19537914
-0.035715774 -0.042510133 0.19624315
-0.034116168 -0.042868488 0.19789746
-0.032352 -0.043050148 0.19873609
-0.030601852 -0.043274414 0.19977137
-0.028950986 -0.043678474 0.20163667
-0.027190518 -0.04396325 0.20295131
-0.025415642 -0.044266921 0.20435315
-0.023630498 -0.044602029 0.20590015
-0.021706849 -0.04471305 0.20641267
-0.019723268 -0.044710532 0.20640104
-0.017788894 -0.044831458 0.20695929
-0.015861355 -0.0450022 0.20774749
-0.013910656 -0.045146916 0.20841557
-0.01197635 -0.045402426 0.2095951
-0.0099990377 -0.045565218 0.21034659
-0.0079861162 -0.045607075 0.21053983
-0.0059476541 -0.04548201 0.20996249
-0.003924259 -0.045402963 0.20959757
-0.0019006551 -0.045152433 0.20844103
0.00010114587 -0.045085974 0.20813422
0.0021032451 -0.045152433 0.20844103
0.0040991525 -0.045085974 0.20813422
0.0061171805 -0.04522663 0.20878354
0.0082263993 -0.0458056 0.21145628
0.01057789 -0.047237199 0.21806511
0.013293982 -0.04955468 0.22876351
0.016218113 -0.051880278 0.23949935
0.019330109 -0.054154433 0.24999774
0.022458177 -0.055966113 0.25836113
0.025310565 -0.056798626 0.26220435
0.028065778 -0.057282139 0.26443642
0.031000983 -0.058022279 0.2678532
0.033991784 -0.058745075 0.2711899
0.036905486 -0.059241228 0.27348033
0.039793089 -0.059632339 0.27528584
0.042292774 -0.059429605 0.27434996
0.044859622 -0.059339501 0.27393401
0.047400873 -0.0592274 0.27341649
0.050214756 -0.05944984 0.27444336
0.0529273 -0.059536096 0.27484155
0.05253749 -0.056290198 0.25985724
0.055257626 -0.056519683 0.26091665
0.059107564 -0.057834741 0.26698744
0.062228963 -0.058357216 0.2693994
0.065198362 -0.058701135 0.27098706
0.067646541 -0.058567386 0.27036962
0.069900848 -0.058281872 0.26905158
0.072141036 -0.058005366 0.26777512
0.074730255 -0.058018878 0.26783749
0.07785105 -0.058430456 0.26973748
0.081721008 -0.059359696 0.27402723
0.083032377 -0.058430456 0.26973748
0.086984739 -0.059359696 0.27402723
0.091282159 -0.060462918 0.27912012
0.095961489 -0.06174894 0.28505689
0.10123505 -0.063335374 0.29238048
0.10596624 -0.064506017 0.29778463
0.11217389 -0.066490285 0.30694479
0.12455928 -0.071940973 0.33210728
0.12584205 -0.070867106 0.32714987
0.12659854 -0.069556408 0.32109916
0.12586595 -0.067509361 0.3116492
0.13276647 -0.069556408 0.32109916
0.13185234 -0.067509361 0.3116492
0.13390604 -0.067038998 0.30947787
nan nan nan
nan nan nan
nan nan nan
nan nan nan
nan nan nan
nan nan nan
nan nan nan
nan nan nan
nan nan nan
nan nan nan
nan nan nan
nan nan nan
nan nan nan
nan nan nan
nan nan nan
nan nan nan
nan nan nan
nan nan nan
nan nan nan
nan nan nan
nan nan nan
nan nan nan
nan nan nan
nan nan nan
nan nan nan
nan nan nan
nan nan nan
nan nan nan
nan nan nan
nan nan nan
nan nan nan
nan nan nan
nan nan nan
nan nan nan
nan nan nan
nan nan nan
nan nan nan
-0.12247079 -0.032204445 0.15560254
-0.10853332 -0.028892063 0.13959807
-0.10094734 -0.027208764 0.13146485
-0.10585181 -0.028892063 0.13959807
-0.098422065 -0.027208764 0.13146485
-0.091713421 -0.025683653 0.12409595
-0.091062032 -0.025837 0.12483689
-0.088969715 -0.025580155 0.12359588
-0.087463468 -0.025487144 0.12314648
-0.087015763 -0.025704272 0.12419558
-0.085097969 -0.025487144 0.12314648
-0.084630117 -0.025704272 0.12419558
-0.083882101 -0.025841303 0.12485768
-0.08349584 -0.026095372 0.12608527
-0.082256489 -0.026086371 0.12604177
-0.081073895 -0.026095372 0.12608527
-0.079789177 -0.026071275 0.12596883
-0.079324804 -0.026318613 0.1271639
-0.079108723 -0.026657356 0.1288006
-0.076882139 -0.026318613 0.1271639
-0.076634623 -0.026657356 0.1288006
-0.076120175 -0.026912836 0.13003501
-0.075330973 -0.027078079 0.13083342
-0.074100301 -0.027087545 0.13087916
-0.072743595 -0.027050477 0.13070005
-0.071586266 -0.027087545 0.13087916
-0.070233002 -0.027050477 0.13070005
-0.069006704 -0.027061846 0.13075499
-0.068274416 -0.027270963 0.13176538
-0.067212656 -0.027353892 0.13216607
-0.066166855 -0.027446633 0.13261417
-0.064673908 -0.027353892 0.13216607
-0.063619494 -0.027446633 0.13261417
-0.062572688 -0.027546506 0.13309672
-0.062089361 -0.027903784 0.13482299
-0.061500717 -0.028227942 0.13638923
-0.060886733 -0.028554328 0.13796623
-0.060297295 -0.028907001 0.13967024
-0.059633143 -0.02923909 0.14127479
-0.057614397 -0.028907001 0.13967024
-0.056877859 -0.029217739 0.14117163
-0.056073036 -0.029507717 0.14257273
-0.055210285 -0.029780971 0.143893
-0.055431303 -0.030667854 0.14817818
-0.055587351 -0.03156459 0.15251094
-0.056384299 -0.03288364 0.15888421
-0.057335783 -0.034368709 0.16605963
-0.057852864 -0.035670914 0.17235151
-0.057724096 -0.036639888 0.17703331
-0.056990407 -0.037272058 0.18008776
-0.054323502 -0.036639888 0.17703331
-0.05353114 -0.037272058 0.18008776
-0.052273329 -0.03761154 0.18172805
-0.050894298 -0.037884247 0.18304569
-0.049298543 -0.038009375 0.18365027
-0.047697324 -0.038139414 0.18427858
-0.045949049 -0.038157355 0.18436527
-0.044460524 -0.03840109 0.18554293
-0.045429852 -0.040876694 0.19750433
-0.044733863 -0.042004336 0.20295277
-0.043164261 -0.042377055 0.20475362
-0.041417003 -0.042602606 0.20584343
-0.039571226 -0.042744353 0.20652832
-0.03783007 -0.043020036 0.20786032
-0.03615994 -0.043411709 0.20975277
-0.034278408 -0.043580823 0.21056987
-0.032376487 -0.043743595 0.21135636
-0.030592516 -0.044098161 0.21306953
-0.028766289 -0.044438299 0.21471295
-0.026889503 -0.044746824 0.21620366
-0.025035985 -0.04514895 0.21814662
-0.022999614 -0.045264661 0.21870571
-0.020844651 -0.045146782 0.21813615
-0.018763971 -0.045181416 0.2183035
-0.016707391 -0.045290098 0.21882862
-0.014634646 -0.045379944 0.21926272
-0.012607889 -0.045666553 0.22064753
-0.01055825 -0.045969352 0.22211057
-0.0084397811 -0.04604993 0.22249991
-0.0063036 -0.046055745 0.222528
-0.0041764756 -0.046167642 0.22306864
-0.0020322027 -0.04612603 0.22286759
0.00010824326 -0.046099417 0.22273901
0.0022488143 -0.04612603 0.22286759
0.0043867906 -0.046099417 0.22273901
0.0065339408 -0.046155054 0.22300784
0.0087184533 -0.046381999 0.22410434
0.011108699 -0.047396854 0.22900784
0.013849147 -0.049323495 0.23831682
0.016924625 -0.051727589 0.24993269
0.02029248 -0.054317042 0.26244417
0.023825986 -0.056728683 0.27409655
0.027021602 -0.057935972 0.27992982
0.030017108 -0.058534537 0.28282189
0.032995421 -0.059003014 0.28508544
0.03604934 -0.059524536 0.28760529
0.039017979 -0.059841033 0.2891345
0.042190671 -0.060407635 0.29187214
0.045082599 -0.06052668 0.29244736
0.04792868 -0.06057382 0.29267511
0.050808631 -0.060656175 0.29307303
0.053878173 -0.060944341 0.29446536
0.056725927 -0.0609654 0.29456711
0.059721608 -0.061135884 0.29539084
0.062508598 -0.061086964 0.29515448
0.061909672 -0.057876922 0.27964449
0.065848164 -0.058999304 0.28506753
0.068850517 -0.059226792 0.28616667
0.071277894 -0.058961194 0.28488338
0.072996102 -0.058150299 0.28096536
0.074619874 -0.057324663 0.27697614
0.07695955 -0.057086915 0.27582741
0.079551071 -0.057045583 0.2756277
0.083255693 -0.057779409 0.27917334
0.084845543 -0.057045583 0.2756277
0.088618271 -0.057779409 0.27917334
0.092932686 -0.058812939 0.28416705
0.098007947 -0.060255263 0.29113594
0.10415769 -0.062259842 0.30082148
0.10990027 -0.063919388 0.30883995
0.1165531 -0.066007219 0.31892774
0.1205546 -0.066525057 0.32142976
0.12270857 -0.066022962 0.31900379
nan nan nan
nan nan nan
nan nan nan
nan nan nan
nan nan nan
nan nan nan
nan nan nan
nan nan nan
nan nan nan
nan nan nan
nan nan nan
nan nan nan
nan nan nan
nan nan nan
nan nan nan
nan nan nan
nan nan nan
nan nan nan
nan nan nan
nan nan nan
nan nan nan
nan nan nan
nan nan nan
nan nan nan
nan nan nan
nan nan nan
nan nan nan
nan nan nan
nan nan nan
nan nan nan
nan nan nan
nan nan nan
nan nan nan
nan nan nan
nan nan nan
nan nan nan
nan nan nan
nan nan nan
nan nan nan
nan nan nan
nan nan nan
nan nan nan
-0.12576644 -0.03152851 0.15978977
-0.10860872 -0.027563576 0.13969506
-0.10108154 -0.025974134 0.13163961
-0.10501794 -0.027327448 0.13849835
-0.093418263 -0.024620872 0.12478115
-0.091094524 -0.024320444 0.12325854
-0.091021366 -0.024620872 0.12478115
-0.088726878 -0.024320444 0.12325854
-0.087465025 -0.024298763 0.12314866
-0.086914398 -0.024476787 0.12405091
-0.085099481 -0.024298763 0.12314866
-0.084531523 -0.024476787 0.12405091
-0.084688261 -0.024872743 0.12605764
-0.083617739 -0.024914509 0.12626933
-0.082012475 -0.024795834 0.12566787
-0.080882907 -0.024819583 0.12578823
-0.079598546 -0.024795834 0.12566787
-0.079085201 -0.025015231 0.12677979
-0.078926526 -0.025355427 0.12850395
-0.076649919 -0.025015231 0.12677979
-0.076458126 -0.025355427 0.12850395
-0.076071687 -0.025641181 0.12995218
-0.075328313 -0.02581415 0.1308288
-0.074051999 -0.025807256 0.13079385
-0.072815247 -0.02581415 0.1308288
-0.071422175 -0.025764892 0.13057916
-0.070072599 -0.025729848 0.13040155
-0.069020964 -0.025804916 0.13078201
-0.06797307 -0.025884196 0.1311838
-0.066899046 -0.025956331 0.13154939
-0.065912291 -0.026065756 0.13210396
-0.064372137 -0.025956331 0.13154939
-0.063374735 -0.026065756 0.13210396
-0.062321834 -0.026156358 0.13256314
-0.061743822 -0.026454207 0.13407268
-0.061183937 -0.026772678 0.13568671
-0.060658108 -0.027120236 0.13744818
-0.060156409 -0.027494285 0.1393439
-0.058017898 -0.027120236 0.13744818
-0.057647429 -0.027574476 0.13975032
-0.056891453 -0.027861578 0.14120537
-0.056088574 -0.028139172 0.14261225
-0.055261988 -0.028418468 0.14402775
-0.055215858 -0.029123763 0.14760226
-0.055300023 -0.029936761 0.15172262
-0.056423917 -0.031371862 0.15899585
-0.058077123 -0.033189282 0.16820674
-0.059552316 -0.035006069 0.1774144
-0.060309701 -0.036495514 0.18496306
-0.056144398 -0.035006069 0.1774144
-0.056756783 -0.036495514 0.18496306
-0.056416806 -0.03744904 0.18979563
-0.055233631 -0.037887845 0.19201954
-0.053733449 -0.038131997 0.19325693
-0.051893875 -0.038144156 0.19331856
-0.050099239 -0.038191475 0.19355838
-0.048260421 -0.038207464 0.1936394
-0.049319714 -0.040611107 0.20582132
-0.048519671 -0.04162053 0.21093717
-0.047024257 -0.042095438 0.21334407
-0.045462713 -0.042551719 0.21565653
-0.043769792 -0.042922724 0.21753684
-0.042001475 -0.043253284 0.21921214
-0.040252745 -0.043639973 0.22117192
-0.038393665 -0.043943439 0.22270992
-0.036350593 -0.044059701 0.22329916
-0.034356687 -0.044253875 0.22428325
-0.032428883 -0.044564866 0.22585939
-0.030496374 -0.044913515 0.22762637
-0.028523497 -0.045251969 0.2293417
-0.026562978 -0.045668323 0.23145181
-0.024433844 -0.045844354 0.23234396
-0.022183688 -0.045805883 0.23214898
-0.019931581 -0.045754328 0.2318877
-0.017707335 -0.045761812 0.23192562
-0.015487762 -0.045785259 0.23204447
-0.013338843 -0.046060573 0.23343977
-0.011192262 -0.046456832 0.23544806
-0.0089665158 -0.046641964 0.23638633
-0.0067088474 -0.046730287 0.23683394
-0.0044583101 -0.04698436 0.23812163
-0.0021781435 -0.04713254 0.23887262
0.00011646291 -0.047286533 0.23965308
0.0024103108 -0.04713254 0.23887262
0.0047199088 -0.047286533 0.23965308
0.0070516807 -0.047488894 0.24067867
0.0094099101 -0.047725532 0.24187796
0.011916098 -0.0484703 0.24565253
0.014728737 -0.0500094 0.25345284
0.017904514 -0.05217002 0.2644031
0.021444106 -0.054722283 0.27733824
0.025229113 -0.057267617 0.29023826
0.028731938 -0.05872966 0.29764801
0.03197116 -0.059437025 0.30123302
0.035018124 -0.05969923 0.30256191
0.038213626 -0.060155075 0.30487218
0.041207533 -0.060251273 0.30535972
0.044598054 -0.060876071 0.30852625
0.047699265 -0.06105271 0.30942148
0.050944414 -0.061382048 0.31109062
0.053990368 -0.061448194 0.31142583
0.057277858 -0.061767869 0.31304598
0.060056917 -0.06153471 0.31186432
0.062975183 -0.06145956 0.31148344
0.065434076 -0.060963247 0.30896807
0.068298653 -0.060871553 0.30850336
0.072209112 -0.061680887 0.31260514
0.073605247 -0.060363598 0.30592901
0.0768563 -0.060610272 0.30717915
0.078462586 -0.059589561 0.3020061
0.079085812 -0.057921648 0.29355294
0.079723895 -0.056379065 0.28573498
0.080771185 -0.055218905 0.27985516
0.084356681 -0.055812817 0.28286517
0.088753834 -0.056889936 0.28832412
0.089790173 -0.055812817 0.28286517
0.094292194 -0.056889936 0.28832412
0.099948965 -0.058582421 0.29690179
0.10708589 -0.061024502 0.30927852
0.1137488 -0.063071914 0.31965503
0.11972166 -0.064639159 0.32759798
0.12455928 -0.065528899 0.33210728
0.12584205 -0.064550743 0.32714987
0.12659854 -0.063356861 0.32109916
0.12586595 -0.061492264 0.3116492
nan nan nan
nan nan nan
nan nan nan
nan nan nan
nan nan nan
nan nan nan
nan nan nan
nan nan nan
nan nan nan
nan nan nan
nan nan nan
nan nan nan
nan nan nan
nan nan nan
nan nan nan
nan nan nan
nan nan nan
nan nan nan
nan nan nan
nan nan nan
nan nan nan
nan nan nan
nan nan nan
nan nan nan
nan nan nan
nan nan nan
nan nan nan
nan nan nan
nan nan nan
nan nan nan
nan nan nan
nan nan nan
nan nan nan
nan nan nan
nan nan nan
nan nan nan
nan nan nan
nan nan nan
nan nan nan
nan nan nan
-0.12741505 -0.030379029 0.16188437
-0.10581645 -0.025541032 0.13610356
-0.11316553 -0.027656544 0.14737673
-0.10320206 -0.025541032 0.13610356
-0.09313608 -0.023345549 0.12440423
-0.090865962 -0.023072515 0.12294926
-0.090746433 -0.023345549 0.12440423
-0.088504247 -0.023072515 0.12294926
-0.087483488 -0.023114812 0.12317467
-0.086857997 -0.023264142 0.12397042
-0.085117452 -0.023114812 0.12317467
-0.084476672 -0.023264142 0.12397042
-0.084569894 -0.023622764 0.12588145
-0.08349584 -0.023661012 0.12608527
-0.08215186 -0.023622764 0.12588145
-0.081073895 -0.023661012 0.12608527
-0.07983537 -0.02365285 0.12604177
-0.079176359 -0.02381877 0.12692593
-0.078856885 -0.02409362 0.12839057
-0.076738268 -0.02381877 0.12692593
-0.076390661 -0.02409362 0.12839057
-0.076358072 -0.024478482 0.13044141
-0.075158074 -0.024495693 0.13053313
-0.073534839 -0.024373207 0.12988043
-0.07221248 -0.024347939 0.12974578
-0.07103999 -0.024373207 0.12988043
-0.069901362 -0.024411201 0.13008289
-0.068936206 -0.024512259 0.13062142
-0.067892618 -0.024588661 0.13102855
-0.066892676 -0.024684051 0.13153686
-0.065375723 -0.024588661 0.13102855
-0.064366005 -0.024684051 0.13153686
-0.063366249 -0.024787152 0.13208626
-0.062275596 -0.024858186 0.1324648
-0.061507549 -0.025063641 0.13355963
-0.06091129 -0.025349339 0.13508207
-0.060456216 -0.025707511 0.1369907
-0.060297295 -0.026210351 0.13967024
-0.058236573 -0.025890581 0.13796623
-0.057614397 -0.026210351 0.13967024
-0.056919422 -0.026511461 0.14127479
-0.056158274 -0.026795702 0.14278947
-0.055374313 -0.027083013 0.1443205
-0.055317514 -0.027749861 0.147874
-0.055292714 -0.028468324 0.15170257
-0.056527544 -0.02989177 0.15928786
-0.058735099 -0.031923093 0.17011242
-0.061062805 -0.034137834 0.18191436
-0.06270282 -0.03608726 0.1923025
-0.057568453 -0.034137834 0.18191436
-0.059008919 -0.03608726 0.1923025
-0.05930452 -0.037439879 0.19951038
-0.05847035 -0.038145777 0.20327197
-0.057070002 -0.038518313 0.20525715
-0.055240925 -0.03861779 0.20578723
-0.056330446 -0.040840682 0.21763264
-0.054273859 -0.04086601 0.21776761
-0.052309517 -0.04096562 0.21829839
-0.051168829 -0.041745506 0.22245429
-0.049561691 -0.042196237 0.22485612
-0.047954425 -0.042687919 0.22747621
-0.046253454 -0.043139137 0.22988069
-0.044507429 -0.043591477 0.23229113
-0.042691004 -0.044018958 0.2345691
-0.040675659 -0.044277549 0.23594707
-0.038487993 -0.044368003 0.23642908
-0.036401991 -0.044594333 0.23763517
-0.034253351 -0.044769078 0.23856635
-0.032136139 -0.045012906 0.23986566
-0.030100146 -0.045416936 0.24201867
-0.028047996 -0.045862172 0.24439123
-0.025842719 -0.04611548 0.24574108
-0.023530733 -0.046210155 0.24624558
-0.021103531 -0.046074443 0.24552239
-0.018699415 -0.045961324 0.24491961
-0.016385907 -0.046070401 0.24550088
-0.014134669 -0.04642066 0.24736732
-0.011908123 -0.047009926 0.25050741
-0.0095856339 -0.047422938 0.25270829
-0.0072058891 -0.047736723 0.25438038
-0.0047986405 -0.048096754 0.25629893
-0.0023569923 -0.048507296 0.25848663
0.00012665457 -0.048908602 0.26062512
0.0026454104 -0.049198896 0.26217204
0.005132948 -0.048908602 0.26062512
0.0076814182 -0.049198896 0.26217204
0.010272425 -0.04955104 0.26404855
0.012961043 -0.050141357 0.26719424
0.015899677 -0.051343907 0.27360243
0.019189507 -0.05317859 0.28337911
0.022831095 -0.055411197 0.29527628
0.026634056 -0.057498824 0.30640087
0.030228594 -0.058765844 0.31315258
0.033510629 -0.059251007 0.31573793
0.0365538 -0.059268352 0.31583038
0.039800934 -0.059588414 0.31753591
0.042769093 -0.05947496 0.31693134
0.046268947 -0.060066845 0.32008538
0.049545974 -0.06031372 0.32140094
0.05311748 -0.060869083 0.32436037
0.056378756 -0.061027113 0.32520249
0.059861876 -0.061396081 0.32716864
0.062632397 -0.06103383 0.32523829
0.065501548 -0.06079755 0.32397917
0.067763261 -0.060044449 0.31996605
0.070593379 -0.059838504 0.31886858
0.074823521 -0.060787071 0.32392335
0.080766216 -0.06299565 0.33569247
0.086078547 -0.064561881 0.34403864
0.082817897 -0.059819981 0.3187699
0.082772486 -0.057655774 0.30723724
0.082022518 -0.055166692 0.29397336
0.081998162 -0.053315066 0.28410637
0.08585538 -0.05402521 0.28789061
0.090756238 -0.055327278 0.2948291
0.091385417 -0.05402521 0.28789061
0.096419558 -0.055327278 0.2948291
0.1024017 -0.057083506 0.30418772
0.10997184 -0.059602983 0.31761354
0.11765207 -0.062044501 0.33062395
nan nan nan
nan nan nan
nan nan nan
nan nan nan
nan nan nan
nan nan nan
nan nan nan
nan nan nan
nan nan nan
nan nan nan
nan nan nan
nan nan nan
nan nan nan
nan nan nan
nan nan nan
nan nan nan
nan nan nan
nan nan nan
nan nan nan
nan nan nan
nan nan nan
nan nan nan
nan nan nan
nan nan nan
nan nan nan
nan nan nan
nan nan nan
nan nan nan
nan nan nan
nan nan nan
nan nan nan
nan nan nan
nan nan nan
nan nan nan
nan nan nan
nan nan nan
nan nan nan
nan nan nan
nan nan nan
nan nan nan
nan nan nan
nan nan nan
nan nan nan
nan nan nan
nan nan nan
-0.12492272 -0.02825259 0.1587178
-0.10303745 -0.023590878 0.13252915
-0.10892715 -0.02525129 0.14185704
-0.10049172 -0.023590878 0.13252915
-0.092347898 -0.021957196 0.12335144
-0.090384126 -0.021769553 0.1222973
-0.089978471 -0.021957196 0.12335144
-0.088034943 -0.021769553 0.1222973
-0.087361008 -0.021895032 0.12300222
-0.086914398 -0.022081707 0.12405091
-0.085099481 -0.0219211 0.12314866
-0.084531523 -0.022081707 0.12405091
-0.084688261 -0.022438914 0.12605764
-0.083617739 -0.022476595 0.12626933
-0.082266845 -0.022438914 0.12605764
-0.081192255 -0.022476595 0.12626933
-0.080259033 -0.022555148 0.12671062
-0.079413369 -0.022661105 0.12730587
-0.07881216 -0.022841224 0.12831774
-0.076967977 -0.022661105 0.12730587
-0.076347329 -0.022841224 0.12831774
-0.075483143 -0.022953197 0.12894678
-0.07424628 -0.022953687 0.12894954
-0.073128708 -0.022991704 0.1291631
-0.071769312 -0.022953687 0.12894954
-0.070647642 -0.022991704 0.1291631
-0.069632202 -0.023066266 0.12958199
-0.068729363 -0.023181526 0.13022949
-0.067684434 -0.023252239 0.13062675
-0.066771552 -0.023371847 0.13129869
-0.06517525 -0.023252239 0.13062675
-0.064249463 -0.023371847 0.13129869
-0.063328959 -0.023498205 0.13200854
-0.062285706 -0.023583248 0.1324863
-0.061458308 -0.023755271 0.1334527
-0.061183937 -0.024152938 0.13568671
-0.060658108 -0.024466489 0.13744818
-0.060156409 -0.024803938 0.1393439
-0.058017898 -0.024466489 0.13744818
-0.057479784 -0.024803938 0.1393439
-0.056818321 -0.025102979 0.14102386
-0.056074131 -0.025379183 0.14257552
-0.055849738 -0.025910363 0.14555959
-0.055098712 -0.026218226 0.14728911
-0.054974224 -0.026848303 0.15082876
-0.056087706 -0.028133444 0.15804845
-0.058628369 -0.030225866 0.16980329
-0.06171165 -0.032725785 0.18384735
-0.05536665 -0.030225866 0.16980329
-0.058180161 -0.032725785 0.18384735
-0.060605872 -0.03515723 0.19750676
-0.061739836 -0.036972247 0.2077032
-0.061449837 -0.038027275 0.21363015
-0.063124262 -0.04041284 0.2270318
-0.06147762 -0.040766854 0.22902058
-0.059357002 -0.040821169 0.22932574
-0.057431087 -0.041018743 0.23043565
-0.05607653 -0.041656584 0.23401892
-0.05415177 -0.041906428 0.23542249
-0.052265707 -0.042209294 0.23712395
-0.050386805 -0.042545807 0.23901442
-0.048593253 -0.042989954 0.24150954
-0.046873424 -0.04354712 0.24463961
-0.045041345 -0.044053305 0.24748325
-0.042867631 -0.044263132 0.24866202
-0.040612631 -0.044408832 0.24948055
-0.038382065 -0.044601202 0.25056124
-0.035955969 -0.044576902 0.25042471
-0.033557881 -0.044586312 0.25047761
-0.031450748 -0.045013621 0.25287813
-0.029300328 -0.045445297 0.2553032
-0.027157499 -0.045968674 0.25824347
-0.024919996 -0.046420909 0.26078403
-0.022465464 -0.046524744 0.26136735
-0.019956034 -0.046526719 0.26137844
-0.017528249 -0.046746999 0.26261595
-0.015109792 -0.047070395 0.2644327
-0.012718653 -0.04762676 0.26755828
-0.010245037 -0.048077829 0.27009228
-0.0077446341 -0.04866644 0.273399
-0.0051881345 -0.049325611 0.27710211
-0.0025554104 -0.04988537 0.28024673
0.00013725602 -0.050275855 0.28244039
0.0028580562 -0.050419297 0.28324622
0.0055625946 -0.050275855 0.28244039
0.0082988739 -0.050419297 0.28324622
0.01104392 -0.050532024 0.28387952
0.013849271 -0.050821416 0.28550524
0.016888792 -0.051732436 0.29062319
0.02022874 -0.053174753 0.29872587
0.023873365 -0.054960176 0.30875605
0.027611135 -0.0565418 0.31764129
0.031254105 -0.057633873 0.32377636
0.03464203 -0.05810054 0.32639802
0.037791133 -0.058122452 0.32652113
0.041148461 -0.058436718 0.32828662
0.044191241 -0.058291342 0.32746989
