# .PCD v0.7 - Point Cloud Data file format
VERSION 0.7
FIELDS x y z
SIZE 4 4 4
TYPE F F F
COUNT 1 1 1
WIDTH 1319
HEIGHT 1
VIEWPOINT 0 0 0 1 0 0 0
POINTS 1319
DATA ascii
-0.012222618 -0.044421922 0.091230199
-0.011444719 -0.044806819 0.092020668
-0.010739047 -0.045562577 0.09357278
-0.010005241 -0.046326116 0.095140874
-0.0091699492 -0.046726011 0.095962144
-0.0082454532 -0.046709936 0.095929131
-0.0072772936 -0.046411343 0.095315911
-0.0063369335 -0.046229631 0.094942726
-0.0054080398 -0.046084542 0.094644748
-0.0045005251 -0.046099816 0.094676122
-0.0036070999 -0.046303682 0.095094807
-0.002708599 -0.046558559 0.095618241
-0.0018066372 -0.0469849 0.096493825
-0.00089167146 -0.047614973 0.09778782
4.6892579e-05 -0.0469849 0.096493825
0.00098671438 -0.047614973 0.09778782
0.001943147 -0.048041198 0.098663174
0.0029078082 -0.048324734 0.099245481
0.0038430626 -0.048100214 0.09878438
0.0047336388 -0.047516126 0.097584821
0.0055414736 -0.046431817 0.095357955
0.0063294754 -0.045512479 0.093469888
0.0071420805 -0.044976462 0.092369065
0.0080398601 -0.04503601 0.092491359
0.0090398574 -0.045599323 0.093648247
0.010031727 -0.046023391 0.094519161
0.011001378 -0.046283614 0.095053583
0.012018447 -0.046688147 0.09588439
0.012958934 -0.046758778 0.096029446
0.013810224 -0.04651957 0.095538169
0.014642083 -0.04624879 0.094982065
0.016336216 -0.048573632 0.099756643
0.017424732 -0.048939921 0.1005089
0.018373214 -0.048895087 0.10041682
0.019315299 -0.048838556 0.10030072
0.020338655 -0.048983123 0.10059763
0.021356184 -0.049101185 0.10084009
0.022357902 -0.049174231 0.1009901
0.023408458 -0.049344148 0.10133906
0.024296783 -0.049172167 0.10098587
0.025168438 -0.048980959 0.10059318
0.026222486 -0.049145721 0.10093156
0.027441464 -0.049596827 0.101858
0.027725585 -0.0483854 0.09937007
0.02838029 -0.047879811 0.098331727
0.029634362 -0.0483854 0.09937007
0.030813137 -0.048740335 0.100099
0.03175921 -0.048716843 0.10005075
0.032577649 -0.048504688 0.099615052
0.033783395 -0.048864849 0.10035472
0.034792624 -0.048928678 0.1004858
0.035875678 -0.049090065 0.10081726
0.039579336 -0.05273461 0.10830212
0.040697515 -0.052835874 0.1085101
0.04165969 -0.05273461 0.10830212
0.042613015 -0.052627351 0.10808184
0.044060308 -0.053120736 0.10909512
0.045624521 -0.053728886 0.11034409
0.047334954 -0.05447771 0.11188197
0.047067706 -0.052967709 0.10878085
0.047566839 -0.052367005 0.10754717
0.049157251 -0.052967709 0.10878085
0.050428517 -0.053206675 0.10927162
0.052388024 -0.054147251 0.1112033
0.053867679 -0.054564193 0.11205957
0.059344389 -0.058934223 0.1210344
0.059686616 -0.058135305 0.11939364
0.061669316 -0.058934223 0.1210344
0.063506119 -0.059566732 0.12233339
0.064366572 -0.059277117 0.12173861
0.065212272 -0.058984488 0.12113763
0.064754777 -0.057544038 0.11817934
0.065498687 -0.057202447 0.11747781
0.065806724 -0.056498211 0.11603151
0.067307517 -0.056824412 0.11670144
0.069091849 -0.05737539 0.11783299
0.06954921 -0.056824412 0.11670144
0.077333346 -0.062182236 0.1277049
0.079692602 -0.063078821 0.12954624
0.081405379 -0.063444003 0.13029622
0.082181029 -0.063078821 0.12954624
0.083908215 -0.063444003 0.13029622
0.081568897 -0.060768899 0.12480231
0.083624303 -0.06139794 0.12609418
0.083966203 -0.060768899 0.12480231
0.086046413 -0.06139794 0.12609418
0.088893056 -0.062548801 0.12845773
0.091823108 -0.063726045 0.13087545
0.099592708 -0.068184815 0.14003253
0.10246117 -0.069213994 0.14214617
0.10476243 -0.06983798 0.14342766
0.10650361 -0.070077248 0.14391905
0.1075175 -0.06983798 0.14342766
0.10523625 -0.067491472 0.13860859
0.10593775 -0.067092642 0.1377895
0.10789875 -0.067491472 0.13860859
0.10858452 -0.067092642 0.1377895
-0.087132931 -0.052835826 0.11070481
-0.086803392 -0.053286236 0.11164854
-0.085398816 -0.053079717 0.11121582
-0.084658764 -0.053286236 0.11164854
-0.083262488 -0.053079717 0.11121582
-0.075542554 -0.048784114 0.10221542
-0.074712023 -0.048883032 0.10242268
-0.073579125 -0.048784114 0.10221542
-0.072744608 -0.048883032 0.10242268
-0.071036913 -0.048389856 0.10138935
-0.071370408 -0.049292739 0.10328113
-0.070182733 -0.04915566 0.10299391
-0.069386505 -0.049292739 0.10328113
-0.067302205 -0.048505478 0.1016316
-0.065535367 -0.047927205 0.10041997
-0.065349989 -0.048505478 0.1016316
-0.06182725 -0.046586603 0.097611062
-0.060182087 -0.046045166 0.096476614
-0.059250478 -0.046041273 0.096468456
-0.058328889 -0.046045166 0.096476614
-0.057397436 -0.046041273 0.096468456
-0.055426087 -0.045189418 0.094683595
-0.054805592 -0.045428876 0.095185325
-0.053622343 -0.045202073 0.094710112
-0.052977197 -0.045428876 0.095185325
-0.051803079 -0.045202073 0.094710112
-0.051753968 -0.045966368 0.09631151
-0.049210194 -0.044502467 0.093244255
-0.048524909 -0.044696141 0.093650058
-0.047419086 -0.044502467 0.093244255
-0.046726003 -0.044696141 0.093650058
-0.046123952 -0.044986207 0.094257824
-0.045479439 -0.045245644 0.094801404
-0.044435259 -0.045109946 0.094517082
-0.044494078 -0.046111681 0.096615978
-0.043448046 -0.04598669 0.09635409
-0.042638198 -0.046111681 0.096615978
-0.041720353 -0.046122838 0.09663935
-0.041201051 -0.046585128 0.09760797
-0.041181657 -0.047647338 0.099833578
-0.040201265 -0.047621809 0.09978009
-0.037096165 -0.045016676 0.094321661
-0.036118798 -0.044927783 0.094135404
-0.035284363 -0.045016676 0.094321661
-0.034310572 -0.044927783 0.094135404
-0.033659078 -0.04526753 0.094847254
-0.032979522 -0.045587383 0.095517434
-0.032636076 -0.046403434 0.097227283
-0.031803619 -0.04655179 0.097538121
-0.031426955 -0.047396556 0.099308118
-0.030420195 -0.047314171 0.099135511
-0.029280065 -0.047012329 0.098503068
-0.028515922 -0.047314171 0.099135511
-0.027387941 -0.047012329 0.098503068
-0.026288964 -0.046740454 0.097933419
-0.025238452 -0.046537772 0.097508743
-0.024196358 -0.046335582 0.097085111
-0.023104297 -0.046017669 0.096418999
-0.022131935 -0.045921568 0.09621764
-0.021245539 -0.046003234 0.09638875
-0.019483572 -0.044110078 0.092422105
-0.018697184 -0.044350296 0.092925422
-0.017869391 -0.04451146 0.093263097
-0.016958132 -0.044470754 0.09317781
-0.016077919 -0.04451146 0.093263097
-0.0151683 -0.044470754 0.09317781
-0.014201902 -0.044248041 0.092711173
-0.013285652 -0.044162232 0.092531376
-0.012449199 -0.044348381 0.092921413
-0.011628287 -0.044622917 0.093496636
-0.010857586 -0.045152213 0.094605647
-0.010097165 -0.045824844 0.096014977
-0.0092936447 -0.04641743 0.097256601
-0.008383886 -0.046552531 0.097539678
-0.0074349651 -0.046476822 0.097381048
-0.006476216 -0.04630905 0.097029515
-0.0055312505 -0.0462 0.096801035
-0.0045965635 -0.046150085 0.096696444
-0.003682388 -0.046332978 0.09707965
-0.0027718309 -0.046700843 0.097850427
-0.0018524944 -0.047222342 0.098943099
-0.00091428234 -0.047854438 0.10026751
4.8082842e-05 -0.047222342 0.098943099
0.0010117352 -0.047854438 0.10026751
0.0019938045 -0.048316333 0.1012353
0.0029845387 -0.048616555 0.10186435
0.0039450158 -0.048397347 0.10140504
0.0048540258 -0.047758564 0.10006662
0.005680216 -0.046650738 0.097745441
0.0065065511 -0.045858186 0.096084833
0.0073432731 -0.045326639 0.094971105
0.0082452083 -0.045270607 0.094853714
0.0092615616 -0.045791432 0.095944978
0.010223948 -0.045975327 0.096330278
0.011203518 -0.046199549 0.096800089
0.012235809 -0.046590164 0.097618528
0.013226533 -0.046778169 0.09801244
0.014129382 -0.046651043 0.097746082
0.015087762 -0.046711687 0.097873151
0.015978986 -0.0465695 0.097575225
0.016967786 -0.046711687 0.097873151
0.017853288 -0.0465695 0.097575225
0.018743671 -0.046453591 0.097332366
0.019755416 -0.046635184 0.097712852
0.021852871 -0.049247034 0.10318536
0.022877688 -0.049319867 0.10333797
0.024058878 -0.049709734 0.10415484
0.024990873 -0.049574152 0.10387076
0.025980743 -0.049559377 0.1038398
0.027093245 -0.049770974 0.10428315
0.028257325 -0.050058853 0.10488633
0.029386332 -0.050266922 0.10532229
0.030272065 -0.050058853 0.10488633
0.031409446 -0.050266922 0.10532229
0.031717408 -0.049176034 0.1030366
0.03270163 -0.049167942 0.10301964
0.033708673 -0.049193628 0.10307346
0.035120539 -0.049791787 0.10432675
0.036221638 -0.049928393 0.10461298
0.037340846 -0.050081912 0.10493465
0.038272057 -0.049981844 0.10472498
0.039356515 -0.050081912 0.10493465
0.043062788 -0.053429987 0.11194973
0.044268455 -0.05358791 0.11228063
0.045470748 -0.05373434 0.11258743
0.047280055 -0.054574627 0.11434805
0.049148142 -0.055443075 0.11616767
0.050744142 -0.055972837 0.11727767
0.051379584 -0.055443075 0.11616767
0.051069528 -0.053937234 0.11301255
0.052184045 -0.053967331 0.11307561
0.053998772 -0.054705564 0.11462241
0.055671506 -0.055273335 0.11581203
0.057654392 -0.056120757 0.1175876
0.057896115 -0.055273335 0.11581203
0.05991311 -0.056120757 0.1175876
0.065837443 -0.060529131 0.12682429
0.066526793 -0.06005187 0.1258243
0.067548677 -0.059886448 0.1254777
0.068943731 -0.06005187 0.1258243
0.069958948 -0.059886448 0.1254777
0.068364479 -0.057530504 0.12054139
0.069736727 -0.057708021 0.12091333
0.071667999 -0.058334749 0.12222649
0.072059318 -0.057708021 0.12091333
0.074015826 -0.058334749 0.12222649
0.076302052 -0.05919772 0.12403464
0.085388921 -0.06522923 0.13667221
0.086242907 -0.064884149 0.13594918
0.088014238 -0.06522923 0.13667221
0.08885432 -0.064884149 0.13594918
0.091380268 -0.065762289 0.13778913
0.093512528 -0.066336095 0.13899139
0.089640282 -0.062694214 0.13136069
0.091656119 -0.063214377 0.13245058
0.09540958 -0.064902306 0.13598724
0.095033236 -0.063773304 0.13362168
0.098021723 -0.064902306 0.13598724
0.10790994 -0.070510007 0.14773683
0.11018464 -0.071061932 0.14889325
0.11074778 -0.070510007 0.14773683
0.1130447 -0.071061932 0.14889325
0.11713392 -0.07271266 0.15235196
0.11233424 -0.068872824 0.14430651
0.11381844 -0.068932317 0.14443114
-0.089461416 -0.053150512 0.11366322
-0.088419668 -0.053180542 0.11372743
-0.083177656 -0.050653439 0.10832319
-0.082250379 -0.050723188 0.10847234
-0.080345556 -0.050184153 0.1073196
-0.077873982 -0.049272507 0.10537004
-0.078284077 -0.050184153 0.1073196
-0.075849958 -0.049272507 0.10537004
-0.07485538 -0.049283989 0.10539459
-0.073549911 -0.049088292 0.10497609
-0.072830878 -0.049283989 0.10539459
-0.071533442 -0.049088292 0.10497609
-0.069535621 -0.048399497 0.10350309
-0.067993052 -0.048012193 0.10267483
-0.065824993 -0.047165308 0.10086375
-0.064331725 -0.046783857 0.10004802
-0.062336821 -0.046020493 0.098415554
-0.061099216 -0.045801315 0.097946845
-0.060293838 -0.045904361 0.098167203
-0.060464539 -0.046765611 0.100009
-0.060023345 -0.047173768 0.10088185
-0.058347635 -0.046609163 0.099674433
-0.05670771 -0.046054788 0.09848889
-0.056433007 -0.046609163 0.099674433
-0.054815859 -0.046054788 0.09848889
-0.050784163 -0.043416683 0.092847265
-0.050775774 -0.044185385 0.094491139
-0.050753433 -0.0449697 0.096168414
-0.050203256 -0.045306735 0.096889168
-0.048906159 -0.0449697 0.096168414
-0.048342131 -0.045306735 0.096889168
-0.04759793 -0.045484819 0.097270004
-0.047891073 -0.046681177 0.099828437
-0.046742812 -0.046492718 0.09942542
-0.045814514 -0.046519753 0.099483229
-0.044832971 -0.046492718 0.09942542
-0.043903559 -0.046519753 0.099483229
-0.042931158 -0.04650142 0.099444017
-0.042714171 -0.047319107 0.10119266
-0.040191311 -0.045560926 0.09743277
-0.039132651 -0.045418311 0.09712778
-0.037923981 -0.045090374 0.09642648
-0.037266944 -0.045418311 0.09712778
-0.036071744 -0.045090374 0.09642648
-0.034964394 -0.044857856 0.095929243
-0.034257639 -0.045140617 0.096533932
-0.034469921 -0.046683788 0.099834025
-0.033818316 -0.047111798 0.10074933
-0.032858443 -0.047122933 0.10077314
-0.03183325 -0.047038227 0.10059199
-0.030786607 -0.046915524 0.10032959
-0.029901002 -0.047038227 0.10059199
-0.028859396 -0.046915524 0.10032959
-0.027775303 -0.046712887 0.099896245
-0.026775787 -0.046643078 0.099746965
-0.025804022 -0.046618231 0.099693827
-0.023619018 -0.044315126 0.094768599
-0.022630876 -0.044163015 0.094443314
-0.021654962 -0.044023059 0.094144009
-0.020757228 -0.044036772 0.094173335
-0.019923689 -0.044194125 0.09450984
-0.019059941 -0.044296298 0.094728336
-0.018202407 -0.044423874 0.095001161
-0.017262062 -0.044352148 0.094847776
-0.01637755 -0.044423874 0.095001161
-0.015440152 -0.044352148 0.094847776
-0.014462372 -0.044148162 0.094411545
-0.013534439 -0.044079226 0.09426412
-0.012672664 -0.044231314 0.094589368
-0.011793806 -0.044342659 0.094827488
-0.010949274 -0.044612512 0.095404558
-0.010150895 -0.045136865 0.096525908
-0.0095117232 -0.046545722 0.099538758
-0.0087068416 -0.047367901 0.10129701
-0.0078003807 -0.047774795 0.10216716
-0.0068335147 -0.047875594 0.10238272
-0.0058496539 -0.04787121 0.10237334
-0.0048652934 -0.047860123 0.10234963
-0.003885359 -0.047897995 0.10243062
-0.0029098385 -0.048034407 0.10272234
-0.0019297719 -0.048197232 0.10307054
-0.00094685075 -0.048556678 0.10383923
5.0088634e-05 -0.048197232 0.10307054
0.0010477751 -0.048556678 0.10383923
0.0020595242 -0.048899431 0.10457221
0.003079793 -0.049153447 0.10511543
0.0040834113 -0.049081914 0.10496245
0.0050407532 -0.048592597 0.10391603
0.0059588738 -0.047949422 0.1025406
0.0068989708 -0.04764045 0.10187986
0.0078103328 -0.047234453 0.10101163
0.0084879259 -0.045660615 0.097645953
0.0094394265 -0.045726843 0.097787574
0.010368785 -0.045683522 0.097694933
0.011378057 -0.045970265 0.098308139
0.012426938 -0.046360832 0.099143371
0.013438507 -0.046566512 0.099583223
0.014420012 -0.046647608 0.099756643
0.015494079 -0.046999373 0.1005089
0.016444327 -0.046956312 0.10041682
0.017424732 -0.046999373 0.1005089
0.018373214 -0.046956312 0.10041682
0.019315299 -0.046902023 0.10030072
0.020338655 -0.047040861 0.10059763
0.021356184 -0.04715424 0.10084009
0.022357902 -0.047224391 0.1009901
0.023501329 -0.047575574 0.10174111
0.025687672 -0.049925696 0.10676689
0.02676544 -0.050023507 0.10697607
0.027887214 -0.050193302 0.10733917
0.029019134 -0.050368592 0.10771403
0.030113228 -0.050468422 0.10792752
0.031262215 -0.050650548 0.108317
0.032186385 -0.050468422 0.10792752
0.033342853 -0.050650548 0.108317
0.034464363 -0.050770149 0.10857277
0.035745092 -0.051110391 0.10930037
0.03619241 -0.050273556 0.10751079
0.037370503 -0.050470077 0.10793106
0.038613167 -0.050740846 0.1085101
0.039579336 -0.050643593 0.10830212
0.040536895 -0.050540581 0.10808184
0.04165969 -0.050643593 0.10830212
0.042613015 -0.050540581 0.10808184
0.043730844 -0.050632946 0.10827935
0.048906516 -0.055310175 0.11828168
0.050864551 -0.056218714 0.12022461
0.052670281 -0.05692232 0.12172928
0.053897459 -0.05698368 0.1218605
0.055008553 -0.05692232 0.12172928
0.056238249 -0.05698368 0.1218605
0.055269755 -0.054860625 0.11732031
0.057393208 -0.05583014 0.11939364
0.059344389 -0.056597382 0.1210344
0.061053533 -0.057108738 0.12212794
0.061669316 -0.056597382 0.1210344
0.063399464 -0.057108738 0.12212794
0.064366572 -0.056926679 0.12173861
0.070727117 -0.061436042 0.13138194
0.07204368 -0.061482739 0.13148181
0.073250808 -0.061436042 0.13138194
0.074569292 -0.061482739 0.13148181
0.076161452 -0.061749771 0.13205287
0.077903055 -0.062127244 0.13286009
0.077092744 -0.060490206 0.12935926
0.077333346 -0.059716605 0.1277049
0.07957758 -0.060490206 0.12935926
0.081405379 -0.060928337 0.13029622
0.082049653 -0.060480796 0.12933914
0.091724008 -0.066603623 0.14243291
0.093338653 -0.066780098 0.1428103
0.095891163 -0.06761276 0.14459096
0.09790884 -0.068049915 0.14552581
0.09866859 -0.06761276 0.14459096
0.10070422 -0.068049915 0.14552581
0.099730723 -0.066469543 0.14214617
0.10157822 -0.066786624 0.14282426
0.10246117 -0.066469543 0.14214617
0.1043217 -0.066786624 0.14282426
0.10650361 -0.067298569 0.14391905
0.11508548 -0.071789645 0.1535233
0.11793359 -0.072635658 0.15533251
0.12338341 -0.075042911 0.16048045
0.12470241 -0.074909359 0.16019486
0.12646605 -0.075042911 0.16048045
-0.087044165 -0.050646771 0.11059203
-0.086803392 -0.051130608 0.11164854
-0.084919818 -0.050646771 0.11059203
-0.084658764 -0.051130608 0.11164854
-0.08246915 -0.050447147 0.11015613
-0.080013156 -0.049580865 0.10826452
-0.081372835 -0.051087301 0.11155397
-0.079208374 -0.050391909 0.11003552
-0.07678216 -0.049508929 0.10810745
-0.075523429 -0.049364854 0.10779285
-0.074705549 -0.049508929 0.10810745
-0.07345286 -0.049364854 0.10779285
-0.068930343 -0.046987716 0.10260214
-0.067302205 -0.046543248 0.1016316
-0.066959485 -0.046987716 0.10260214
-0.065349989 -0.046543248 0.1016316
-0.063251413 -0.04573169 0.099859484
-0.063594617 -0.046687767 0.10194717
-0.062243264 -0.04641024 0.10134116
-0.061636332 -0.046687767 0.10194717
-0.061482865 -0.047323287 0.10333488
-0.060234472 -0.047123067 0.10289769
-0.058869187 -0.0468232 0.1022429
-0.05468715 -0.044234771 0.096590824
-0.052977197 -0.043591108 0.095185325
-0.051803079 -0.04337348 0.094710112
-0.051753968 -0.044106856 0.09631151
-0.051803377 -0.044952411 0.098157853
-0.04990394 -0.044106856 0.09631151
-0.050749049 -0.045700897 0.09979225
-0.050202407 -0.046078872 0.1006176
-0.049949449 -0.046746545 0.10207552
-0.049160946 -0.046929706 0.10247547
-0.048176344 -0.046929333 0.10247465
-0.047192518 -0.046929706 0.10247547
-0.046207935 -0.046929333 0.10247465
-0.042638198 -0.044246294 0.096615978
-0.041720353 -0.044256996 0.09663935
-0.041627306 -0.045163047 0.0986178
-0.041181657 -0.045719825 0.099833578
-0.040201265 -0.045695327 0.09978009
-0.038952429 -0.04535706 0.099041447
-0.038284607 -0.045695327 0.09978009
-0.037049964 -0.04535706 0.099041447
-0.036606308 -0.045994818 0.10043405
-0.035522331 -0.04584077 0.10009768
-0.035037957 -0.046473458 0.10147921
-0.034425441 -0.046967521 0.10255804
-0.033562075 -0.047138374 0.10293111
-0.032547276 -0.047100443 0.10284829
-0.031448849 -0.046935335 0.10248776
-0.030571684 -0.047100443 0.10284829
-0.029480183 -0.046935335 0.10248776
-0.027387941 -0.045110505 0.098503068
-0.026288964 -0.044849627 0.097933419
-0.025238452 -0.04465514 0.097508743
-0.024154818 -0.044384804 0.096918434
-0.023104297 -0.044156086 0.096418999
-0.022131935 -0.044063866 0.09621764
-0.021245539 -0.044142228 0.09638875
-0.020424133 -0.044368912 0.096883737
-0.019521009 -0.044431254 0.097019859
-0.018613949 -0.044490423 0.097149067
-0.017657377 -0.044431254 0.097019859
-0.016747834 -0.044490423 0.097149067
-0.015725607 -0.044239573 0.096601307
-0.015092234 -0.045119785 0.098523334
-0.014075546 -0.044895142 0.098032802
-0.013079714 -0.044709574 0.097627603
-0.01206903 -0.044440668 0.097040415
-0.011118184 -0.044365522 0.096876323
-0.010224408 -0.04452518 0.097224958
-0.0095868967 -0.045945074 0.10032544
-0.0088191014 -0.046988141 0.10260306
-0.0079292748 -0.047561649 0.10385537
-0.0069866502 -0.047937952 0.10467707
-0.0059913732 -0.048018761 0.10485353
-0.0049780272 -0.047958154 0.10472118
-0.0039621163 -0.047835879 0.10445418
-0.0029562984 -0.047793873 0.10436246
-0.0019529284 -0.04776863 0.10430735
-0.00095786765 -0.048107561 0.10504743
5.0689676e-05 -0.04776863 0.10430735
0.0010599664 -0.048107561 0.10504743
0.0020855966 -0.04849619 0.10589603
0.0031142707 -0.048677612 0.10629219
0.0041311486 -0.048630588 0.1061895
0.0051194965 -0.04833284 0.10553935
0.0060864086 -0.047964584 0.10473523
0.0070813475 -0.047890332 0.10457309
0.008047536 -0.04766424 0.1040794
0.0089879259 -0.047352187 0.103398
0.0097844386 -0.046419658 0.10136172
0.01069526 -0.046149127 0.100771
0.011714875 -0.046353973 0.1012183
0.012786647 -0.04671799 0.10201317
0.013872257 -0.047077153 0.10279743
0.014752593 -0.046738259 0.10205742
0.015886039 -0.047193512 0.10305151
0.016889278 -0.047231238 0.10313389
0.017862385 -0.047185197 0.10303336
0.018870354 -0.047231238 0.10313389
0.019841533 -0.047185197 0.10303336
0.020874294 -0.04728302 0.10324696
0.021852871 -0.047254812 0.10318536
0.022877688 -0.047324698 0.10333797
0.024058878 -0.047698792 0.10415484
0.025033854 -0.047650505 0.1040494
0.025980743 -0.047554519 0.1038398
0.027093245 -0.047757551 0.10428315
0.02989159 -0.050811823 0.11095244
0.031068919 -0.05099516 0.11135277
0.032298706 -0.05124953 0.11190822
0.033207871 -0.05099516 0.11135277
0.034448329 -0.05124953 0.11190822
0.035762183 -0.051594403 0.11266128
0.037176564 -0.052059788 0.11367749
0.038304705 -0.052109223 0.11378543
0.039402716 -0.052116055 0.11380035
0.039697774 -0.051089164 0.11155804
0.040912364 -0.051268544 0.11194973
0.04211168 -0.051420081 0.11228063
0.043062788 -0.051268544 0.11194973
0.044268455 -0.051420081 0.11228063
0.045470748 -0.051560584 0.11258743
0.0468718 -0.051914699 0.11336067
0.049148142 -0.053200193 0.11616767
0.054895218 -0.058102101 0.12687145
0.056429032 -0.058428567 0.12758432
0.057332262 -0.058102101 0.12687145
0.058879778 -0.058428567 0.12758432
0.060582768 -0.058892868 0.12859817
0.062932439 -0.059954692 0.13091676
0.064663894 -0.060397498 0.13188367
0.063401304 -0.058080498 0.12682429
0.064312473 -0.057804655 0.12622195
0.065837443 -0.058080498 0.12682429
0.066785552 -0.057846669 0.1263137
0.067548677 -0.057463817 0.1254777
0.068821013 -0.057519987 0.12560035
0.076257467 -0.062637374 0.13677466
0.077308051 -0.062424961 0.13631083
0.078318015 -0.062187381 0.13579205
0.080542795 -0.062906377 0.13736205
0.082823336 -0.06364505 0.13897501
0.083181351 -0.062906377 0.13736205
0.08279705 -0.061638143 0.13459274
0.085388921 -0.062590457 0.13667221
0.086242907 -0.062259339 0.13594918
0.088014238 -0.062590457 0.13667221
0.08885432 -0.062259339 0.13594918
0.10005372 -0.06909135 0.15086752
0.10196203 -0.069404006 0.15155023
0.10295171 -0.06909135 0.15086752
0.10487313 -0.069404006 0.15155023
0.10664744 -0.069612063 0.15200455
0.10850616 -0.069868863 0.1525653
0.10614874 -0.06744016 0.14726199
0.10776857 -0.06756898 0.14754328
0.11018464 -0.068187214 0.14889325
0.11317964 -0.069143273 0.1509809
0.1130447 -0.068187214 0.14889325
0.12979245 -0.077311262 0.16881648
0.13121481 -0.077194177 0.16856082
0.13303521 -0.077311262 0.16881648
-0.089112476 -0.050757237 0.11321987
-0.088419668 -0.050984774 0.11372743
-0.086937651 -0.050757237 0.11321987
-0.086235099 -0.050984774 0.11372743
-0.084670924 -0.050702196 0.1130971
-0.083632298 -0.050731078 0.11316152
-0.082498461 -0.050702196 0.1130971
-0.081273071 -0.050615527 0.11290377
-0.079926938 -0.050450303 0.11253523
-0.074911557 -0.047932748 0.10691953
-0.072830878 -0.047249109 0.10539459
-0.071315147 -0.046917871 0.10465573
-0.069535621 -0.046401132 0.10350309
-0.067993052 -0.046029825 0.10267483
-0.067547448 -0.046401132 0.10350309
-0.067562737 -0.047104865 0.10507285
-0.06577114 -0.046551082 0.10383756
-0.065373033 -0.046981703 0.10479812
-0.063776553 -0.046551082 0.10383756
-0.063359991 -0.046981703 0.10479812
-0.063416108 -0.047782376 0.1065841
-0.058347635 -0.044684719 0.099674433
-0.05670771 -0.044153236 0.09848889
-0.056433007 -0.044684719 0.099674433
-0.054815859 -0.044153236 0.09848889
-0.053477947 -0.043831948 0.097772226
-0.052974626 -0.044195469 0.098583095
-0.053577997 -0.0455123 0.10152044
-0.052560724 -0.045475762 0.10143894
-0.051627915 -0.0455123 0.10152044
-0.050877698 -0.045714311 0.10197105
-0.050998144 -0.046721902 0.1042186
-0.050647561 -0.047329675 0.1055743
-0.04997183 -0.047652222 0.10629378
-0.045973495 -0.044753764 0.099828437
-0.044832971 -0.044573087 0.09942542
-0.043903559 -0.044599004 0.099483229
-0.043303818 -0.044968408 0.10030723
-0.042714171 -0.045365356 0.10119266
-0.042176586 -0.045837354 0.10224551
-0.041163437 -0.045802701 0.10216822
-0.04128902 -0.047064371 0.10498252
-0.040168166 -0.046932857 0.10468916
-0.038905062 -0.046624113 0.10400046
-0.037624542 -0.04627768 0.1032277
-0.036566388 -0.046193395 0.1030397
-0.036004379 -0.046748634 0.10427823
-0.03531722 -0.047168497 0.10521477
-0.034467191 -0.047389161 0.105707
-0.03340181 -0.047318149 0.10554859
-0.030922711 -0.045177285 0.10077314
-0.029901002 -0.045096073 0.10059199
-0.028859396 -0.044978432 0.10032959
-0.027775303 -0.044784166 0.099896245
-0.026775787 -0.044717237 0.099746965
-0.025804022 -0.044693418 0.099693827
-0.024674604 -0.044384167 0.099004008
-0.023596428 -0.044146001 0.098472759
-0.022635031 -0.044115547 0.098404825
-0.021769622 -0.044277668 0.098766454
-0.020940416 -0.044531558 0.09933278
-0.020061869 -0.044699747 0.099707939
-0.019592639 -0.045842506 0.102257
-0.01863296 -0.045897771 0.10238028
-0.017628407 -0.045842506 0.102257
-0.016548054 -0.045571972 0.10165355
-0.015450442 -0.045217004 0.10086175
-0.014406073 -0.04498079 0.10033485
-0.01338005 -0.044772096 0.099869326
-0.012317182 -0.044398364 0.099035673
-0.011351142 -0.044340305 0.098906167
-0.010520606 -0.044849295 0.10004153
-0.0097172707 -0.045588221 0.10168979
-0.0089514768 -0.046688072 0.10414314
-0.0080562029 -0.047304366 0.10551785
-0.0071303933 -0.047892924 0.10683069
-0.0061171385 -0.047993265 0.10705451
-0.0050738975 -0.047851361 0.10673798
-0.0040323376 -0.047657456 0.10630545
-0.0030046487 -0.047551587 0.1060693
-0.0019817215 -0.04745112 0.10584521
-0.00097254122 -0.047814894 0.10665664
5.1437022e-05 -0.04745112 0.10584521
0.0010762039 -0.047814894 0.10665664
0.0021217277 -0.048296351 0.10773059
0.0031699454 -0.048503388 0.10819241
0.0042208866 -0.048639581 0.1084962
0.0052584554 -0.048598252 0.10840401
0.0062697856 -0.048368167 0.10789078
0.0072885132 -0.048252326 0.10763238
0.0082808649 -0.048012335 0.10709705
0.0092142671 -0.047521345 0.10600185
0.010101191 -0.046912219 0.10464311
0.010965424 -0.046317473 0.10331648
0.012014569 -0.046537694 0.1038077
0.013105947 -0.046875209 0.10456057
0.0142252 -0.047257293 0.10541285
0.015399621 -0.047759697 0.10653351
0.016585857 -0.048233852 0.10759117
0.017706541 -0.048472941 0.10812449
0.01879447 -0.048600838 0.10840978
0.019783484 -0.048472941 0.10812449
0.020307254 -0.047274739 0.10545176
0.021394871 -0.047440641 0.10582182
0.022397034 -0.047410592 0.1057548
0.023479266 -0.047545299 0.10605527
0.024696471 -0.047930755 0.10691509
0.025749538 -0.047979597 0.10702403
0.02676544 -0.047958095 0.10697607
0.027887214 -0.048120879 0.10733917
0.029019134 -0.04828893 0.10771403
0.030113228 -0.048384637 0.10792752
0.031262215 -0.048559241 0.108317
0.034940213 -0.052524365 0.11716167
0.035796747 -0.052132994 0.11628866
0.037190747 -0.052524365 0.11716167
0.038609479 -0.052926652 0.11805901
0.039710965 -0.05288351 0.11796278
0.040643848 -0.052624457 0.11738493
0.042082559 -0.05301664 0.11825974
0.043761253 -0.053682599 0.11974523
0.045370005 -0.054230846 0.12096816
0.044940505 -0.052376222 0.11683121
0.045970257 -0.052271228 0.116597
0.047184687 -0.052376222 0.11683121
0.048547871 -0.052637625 0.1174143
0.050864551 -0.053897504 0.12022461
0.052670281 -0.054572057 0.12172928
0.053897459 -0.054630887 0.1218605
0.060348608 -0.05986974 0.13354637
0.060913652 -0.059172668 0.13199146
0.062913872 -0.05986974 0.13354637
0.064845957 -0.06047542 0.13489741
0.067649849 -0.061854497 0.13797359
0.069158137 -0.062018722 0.13833992
0.070099927 -0.06167832 0.13758062
0.068663947 -0.059297115 0.13226905
0.069645382 -0.059052128 0.13172258
0.070727117 -0.058899414 0.13138194
0.07204368 -0.058944184 0.13148181
0.072962709 -0.058667764 0.13086522
0.074569292 -0.058944184 0.13148181
0.080351301 -0.062456958 0.13931745
0.082231864 -0.062871747 0.14024268
0.084625937 -0.063659437 0.14199972
0.084925763 -0.062871747 0.14024268
0.08735358 -0.063659437 0.14199972
0.09018524 -0.064712681 0.14434911
0.090595439 -0.064022824 0.1428103
0.092730433 -0.064554267 0.14399573
0.093338653 -0.064022824 0.1428103
0.095496416 -0.064554267 0.14399573
0.09790884 -0.065240204 0.14552581
0.10923919 -0.071765549 0.16008134
0.11082327 -0.071795732 0.16014867
0.11231416 -0.071765549 0.16008134
0.11482114 -0.072376661 0.1614445
0.11569954 -0.071958609 0.16051199
0.1179223 -0.072376661 0.1614445
0.11494985 -0.069636613 0.15533251
0.11883781 -0.071069568 0.15852888
0.11793359 -0.069636613 0.15533251
0.12188296 -0.071069568 0.15852888
0.12470241 -0.071816444 0.16019486
0.13743909 -0.078186862 0.17440481
-0.08953695 -0.049900822 0.11375918
-0.088438071 -0.049897276 0.11375109
-0.087810956 -0.050163139 0.11435719
-0.086223483 -0.049880173 0.11371211
-0.084831484 -0.049704477 0.11331157
-0.084039219 -0.049880173 0.11371211
-0.082654916 -0.049704477 0.11331157
-0.078443594 -0.047801387 0.10897309
-0.07678216 -0.047421668 0.10810745
-0.076350346 -0.047801387 0.10897309
-0.074705549 -0.047421668 0.10810745
-0.073237605 -0.047145102 0.10747696
-0.071383618 -0.046608567 0.10625381
-0.07357683 -0.048737336 0.11110678
-0.07146053 -0.048032127 0.1094991
-0.06877847 -0.046919897 0.10696355
-0.067637056 -0.046840876 0.10678341
-0.066723831 -0.046919897 0.10696355
-0.065585874 -0.046840876 0.10678341
-0.061636332 -0.044719443 0.10194717
-0.06151012 -0.045348264 0.10338069
-0.060234472 -0.045136392 0.10289769
-0.059524301 -0.045348264 0.10338069
-0.05825793 -0.045136392 0.10289769
-0.056905225 -0.044849172 0.1022429
-0.057828072 -0.046376802 0.10572544
-0.056584198 -0.046190314 0.10530032
-0.055797212 -0.046376802 0.10572544
-0.054561511 -0.046190314 0.10530032
-0.053105511 -0.045806777 0.10442597
-0.052171972 -0.045867801 0.10456508
-0.05183756 -0.046468284 0.10593401
-0.049160946 -0.044951186 0.10247547
-0.047988702 -0.044775747 0.10207552
-0.047192518 -0.044951186 0.10247547
-0.046207935 -0.044950828 0.10247465
-0.04524285 -0.044969834 0.10251798
-0.044687323 -0.045405831 0.10351193
-0.044011801 -0.045736969 0.10426682
-0.044494562 -0.04731524 0.10786481
-0.043287817 -0.047129314 0.10744096
-0.042422608 -0.04731524 0.10786481
-0.04133369 -0.047254708 0.10772682
-0.040157478 -0.047088716 0.1073484
-0.038934987 -0.046858273 0.10682306
-0.037849985 -0.046785306 0.10665673
-0.037044629 -0.047063559 0.10729106
-0.034425441 -0.044987407 0.10255804
-0.033562075 -0.045151055 0.10293111
-0.032455422 -0.044987407 0.10255804
-0.031584896 -0.045151055 0.10293111
-0.030571684 -0.045114726 0.10284829
-0.029480183 -0.044956576 0.10248776
-0.028405508 -0.044814046 0.10216283
-0.027442852 -0.044844374 0.10223196
-0.026461603 -0.044845432 0.10223439
-0.025289837 -0.044511262 0.10147257
-0.024136603 -0.044184223 0.10072702
-0.023881001 -0.045541681 0.10382163
-0.022991976 -0.04575685 0.10431214
-0.022110995 -0.046008363 0.10488553
-0.021176314 -0.046166822 0.10524676
-0.02009627 -0.046008363 0.10488553
-0.019154653 -0.046166822 0.10524676
-0.018109519 -0.046079542 0.10504779
-0.016991505 -0.04578558 0.10437764
-0.01586112 -0.04541932 0.10354268
-0.014805564 -0.045232683 0.1031172
-0.013761654 -0.045057416 0.10271764
-0.0126743 -0.044701848 0.10190705
-0.011712205 -0.044765525 0.10205222
-0.010808838 -0.045085803 0.10278235
-0.0099463388 -0.045658063 0.10408694
-0.0091453623 -0.046672184 0.10639884
-0.0082314378 -0.047292516 0.10781302
-0.0072991848 -0.047970932 0.1093596
-0.0062672757 -0.048112366 0.10968203
-0.0051939394 -0.047928672 0.10926326
-0.0041285683 -0.047744066 0.1088424
-0.003072001 -0.047570597 0.10844696
-0.0020231504 -0.047399964 0.10805797
-0.00099005294 -0.047627695 0.10857712
5.2512347e-05 -0.047399964 0.10805797
0.0010955821 -0.047627695 0.10857712
0.0021586644 -0.04807904 0.10960605
0.0032316211 -0.048382312 0.11029743
0.0043206359 -0.04871691 0.11106021
0.0054086968 -0.048910383 0.11150127
0.0064576692 -0.048744842 0.11112389
0.0074911001 -0.048525598 0.11062407
0.0085045071 -0.048247214 0.10998943
0.0094596166 -0.047736157 0.10882438
0.010389252 -0.04721104 0.10762727
0.011365266 -0.046972651 0.1070838
0.012450434 -0.047187518 0.10757364
0.013568892 -0.047485959 0.108254
0.014709062 -0.047812492 0.1089984
0.015919549 -0.048309021 0.11013034
0.017089838 -0.048629295 0.11086047
0.018263604 -0.048921313 0.11152618
0.01939979 -0.049085889 0.11190138
0.020534344 -0.049229272 0.11222824
0.021549281 -0.049085889 0.11190138
0.022690112 -0.049229272 0.11222824
0.023784591 -0.049263641 0.1123066
0.024089877 -0.047731336 0.10881339
0.025277186 -0.048001416 0.1094291
0.026374519 -0.048085894 0.10962167
0.02743111 -0.048092447 0.10963663
0.028750058 -0.048541486 0.1106603
0.02989159 -0.048669636 0.11095244
0.031068919 -0.048845243 0.11135277
0.032298706 -0.049088892 0.11190822
0.033598099 -0.049419221 0.11266128
0.034448329 -0.049088892 0.11190822
0.035762183 -0.049419221 0.11266128
0.039962929 -0.053602342 0.12219756
0.041168142 -0.053643495 0.12229137
0.042231359 -0.053502463 0.12196986
0.043680836 -0.053845193 0.12275118
0.045475919 -0.054584742 0.12443713
0.047227912 -0.055236008 0.12592183
0.048807986 -0.055658706 0.12688546
0.04964672 -0.055236008 0.12592183
0.049129661 -0.053360857 0.12164705
0.050595485 -0.053676449 0.1223665
0.052173663 -0.054094203 0.12331886
0.054895218 -0.055652559 0.12687145
0.056429032 -0.055965267 0.12758432
0.058112551 -0.056409992 0.12859817
0.058879778 -0.055965267 0.12758432
0.065323986 -0.060824644 0.13866228
0.067297742 -0.061410476 0.1399978
0.06993065 -0.062563062 0.14262535
0.071445018 -0.062689878 0.14291447
0.072564825 -0.062472235 0.14241831
0.074190237 -0.062689878 0.14291447
0.075300507 -0.062472235 0.14241831
0.073868304 -0.060190663 0.13721699
0.074689679 -0.059793174 0.13631083
0.075709619 -0.059565611 0.13579205
0.077308051 -0.059793174 0.13631083
0.078318015 -0.059565611 0.13579205
0.080542795 -0.060254294 0.13736205
0.087040409 -0.064065792 0.14605114
0.090022109 -0.065209545 0.14865857
0.089845881 -0.064065792 0.14605114
0.092877664 -0.065209545 0.14865857
0.098691441 -0.068242349 0.15557246
0.1013886 -0.069061764 0.15744048
0.097556248 -0.065474823 0.14926332
0.099823587 -0.0660263 0.15052052
0.10196203 -0.066477984 0.15155023
0.10325065 -0.066370673 0.1513056
0.10487313 -0.066477984 0.15155023
0.11813136 -0.073857166 0.1683726
0.12203 -0.075264342 0.17158054
0.12385951 -0.075374842 0.17183244
0.12532586 -0.075264342 0.17158054
0.12716021 -0.075374842 0.17183244
0.12962069 -0.0758489 0.17291316
0.12390371 -0.07158637 0.16319585
0.12789331 -0.072968341 0.16634634
0.13121481 -0.073939733 0.16856082
0.13247092 -0.07373777 0.1681004
-0.090246037 -0.049189132 0.11466011
-0.090283908 -0.049817678 0.11612525
-0.088043556 -0.049189132 0.11466011
-0.08723104 -0.049352475 0.11504087
-0.085996948 -0.049278442 0.1148683
-0.084083349 -0.048808061 0.11377183
-0.082498461 -0.048518598 0.1130971
-0.081273071 -0.048435666 0.11290377
-0.079926938 -0.048277557 0.11253523
-0.079104319 -0.048435666 0.11290377
-0.077765279 -0.048277557 0.11253523
-0.078101896 -0.049169932 0.11461536
-0.076217242 -0.048669402 0.11344861
-0.075900272 -0.049169932 0.11461536
-0.074038029 -0.048669402 0.11344861
-0.071988709 -0.048029099 0.11195607
-0.070627727 -0.047835588 0.11150499
-0.064896017 -0.044630285 0.10403341
-0.063776553 -0.044546265 0.10383756
-0.064215109 -0.045565106 0.10621249
-0.063416108 -0.045724526 0.1065841
-0.062347256 -0.045691419 0.10650693
-0.061368756 -0.045724526 0.1065841
-0.06237537 -0.047262914 0.11017009
-0.061450642 -0.047365732 0.11040975
-0.060238391 -0.047246642 0.11013216
-0.058678512 -0.046845771 0.10919773
-0.058122884 -0.047246642 0.11013216
-0.056580953 -0.046845771 0.10919773
-0.054741617 -0.046178877 0.10764319
-0.051405121 -0.04419902 0.10302813
-0.050998144 -0.044709731 0.1042186
-0.050647561 -0.045291323 0.1055743
-0.048996229 -0.044709731 0.1042186
-0.048619609 -0.045291323 0.1055743
-0.047930058 -0.045599978 0.10629378
-0.047004607 -0.045692753 0.10651004
-0.047460161 -0.047161985 0.10993482
-0.046537772 -0.04729763 0.11025102
-0.045637712 -0.047462821 0.11063607
-0.044419985 -0.04729763 0.11025102
-0.043512531 -0.047462821 0.11063607
-0.042473823 -0.047489531 0.11069833
-0.041406918 -0.047485273 0.1106884
-0.040318821 -0.04745584 0.1106198
-0.036566388 -0.044203985 0.1030397
-0.036004379 -0.044735309 0.10427823
-0.03531722 -0.045137089 0.10521477
-0.034467191 -0.045348249 0.105707
-0.033296172 -0.045137089 0.10521477
-0.032436687 -0.045348249 0.105707
-0.03137435 -0.045280293 0.10554859
-0.030269282 -0.045144074 0.10523106
-0.029262204 -0.045149632 0.10524401
-0.02832054 -0.045260128 0.10550158
-0.028075017 -0.046532638 0.10846781
-0.0267717 -0.04608243 0.10741837
-0.025574951 -0.045786921 0.10672954
-0.024671469 -0.046013694 0.10725815
-0.023785336 -0.046293993 0.10791153
-0.022843156 -0.046485785 0.1083586
-0.021842338 -0.046570864 0.10855691
-0.020761719 -0.046485785 0.1083586
-0.019757092 -0.046570864 0.10855691
-0.018652162 -0.04641581 0.10819548
-0.017515203 -0.046158064 0.10759468
-0.016356543 -0.045807213 0.10677684
-0.015251641 -0.045570053 0.10622402
-0.014164726 -0.045356482 0.10572618
-0.013043334 -0.044991005 0.10487425
-0.01205231 -0.045051664 0.10501566
-0.010520606 -0.042917769 0.10004153
-0.0097172707 -0.04362487 0.10168979
-0.0089514768 -0.044677354 0.10414314
-0.0080562029 -0.045267105 0.10551785
-0.0071303933 -0.045830317 0.10683069
-0.0061171385 -0.045926332 0.10705451
-0.0050738975 -0.045790542 0.10673798
-0.0040323376 -0.045604985 0.10630545
-0.0030046487 -0.04550368 0.1060693
-0.0019817215 -0.045407541 0.10584521
-0.00097254122 -0.045755647 0.10665664
5.1437022e-05 -0.045407541 0.10584521
0.0010762039 -0.045755647 0.10665664
0.0021217277 -0.046216369 0.10773059
0.0031699454 -0.046414491 0.10819241
0.0042208866 -0.046544813 0.1084962
0.0052584554 -0.046505269 0.10840401
0.0062697856 -0.046285097 0.10789078
0.0072885132 -0.046174239 0.10763238
0.0082808649 -0.045944583 0.10709705
0.0092142671 -0.045474742 0.10600185
0.010694168 -0.047527157 0.11078604
0.011753732 -0.047509097 0.11074395
0.012890868 -0.047781557 0.11137905
0.014008672 -0.047946103 0.11176261
0.015163189 -0.048203934 0.11236361
0.016415859 -0.048718803 0.11356378
0.017610054 -0.04900679 0.11423507
0.018848198 -0.049376123 0.11509599
0.020023197 -0.049548287 0.1154973
0.021195197 -0.049695332 0.11584007
0.022241762 -0.049548287 0.1154973
0.023420345 -0.049695332 0.11584007
0.024571868 -0.04977423 0.11602398
0.02589014 -0.050169408 0.11694513
0.027079327 -0.050291982 0.11723086
0.028207006 -0.0502951 0.11723812
0.029348079 -0.050320942 0.11729836
0.029739033 -0.049106244 0.11446691
0.030949144 -0.049282562 0.1148779
0.032254081 -0.049592543 0.11560046
0.033562981 -0.04988778 0.11628866
0.034940213 -0.050262298 0.11716167
0.036341704 -0.050647259 0.11805901
0.037190747 -0.050262298 0.11716167
0.038609479 -0.050647259 0.11805901
0.039710965 -0.050605975 0.11796278
0.043983478 -0.054495905 0.12703022
0.045267854 -0.054573454 0.12721099
0.04731096 -0.055537589 0.1294584
0.049183737 -0.056257524 0.13113657
0.050890915 -0.056756813 0.13230042
0.052449383 -0.057069972 0.13303038
0.053432249 -0.056756813 0.13230042
0.055004731 -0.057069972 0.13303038
0.05420227 -0.05496072 0.12811372
0.056573693 -0.056091972 0.13075067
0.058378261 -0.056624275 0.13199146
0.060348608 -0.057291325 0.13354637
0.062254742 -0.057870924 0.13489741
0.062913872 -0.057291325 0.13354637
0.064845957 -0.057870924 0.13489741
0.071910277 -0.06291829 0.14666285
0.073997155 -0.063500337 0.14801961
0.075222403 -0.063334987 0.14763418
0.07684043 -0.063500337 0.14801961
0.07805828 -0.063334987 0.14763418
0.079020046 -0.062971465 0.14678679
0.079075247 -0.061910897 0.14431462
0.077675179 -0.05976712 0.13931745
0.079050116 -0.059795015 0.13938248
0.080351301 -0.05976712 0.13931745
0.08172749 -0.059795015 0.13938248
0.084625937 -0.060917813 0.14199972
0.087412469 -0.061925698 0.14434911
0.093305148 -0.06506826 0.15167443
0.096320756 -0.066138647 0.15416953
0.10284106 -0.069546707 0.16211371
0.10558017 -0.070334189 0.16394934
0.10595506 -0.069546707 0.16211371
0.10872944 -0.070334189 0.16394934
0.107747 -0.068703704 0.16014867
0.10923919 -0.068674818 0.16008134
0.11082327 -0.068703704 0.16014867
0.11231416 -0.068674818 0.16008134
0.11482114 -0.069259614 0.1614445
0.13197009 -0.078543119 0.1830844
0.13334535 -0.078318074 0.18255983
0.13548693 -0.078543119 0.1830844
0.13516034 -0.077349916 0.18030304
nan nan nan
0.13862376 -0.077349916 0.18030304
0.1357803 -0.07482855 0.17442572
nan nan nan
-0.090463862 -0.048198294 0.11493685
-0.090356715 -0.048735917 0.11621889
-0.088256061 -0.048198294 0.11493685
-0.086223483 -0.047684707 0.11371211
-0.084831484 -0.047516745 0.11331157
-0.084039219 -0.047684707 0.11371211
-0.082654916 -0.047516745 0.11331157
-0.082789212 -0.04822896 0.11500998
-0.081293806 -0.04799822 0.11445974
-0.08188279 -0.049008708 0.11686941
-0.081006311 -0.049157977 0.11722537
-0.079573907 -0.048969347 0.11677555
-0.078754544 -0.049157977 0.11722537
-0.07733079 -0.048969347 0.11677555
-0.075926669 -0.04878778 0.11634258
-0.06877847 -0.044854723 0.10696355
-0.067637056 -0.044779185 0.10678341
-0.066723831 -0.044854723 0.10696355
-0.065585874 -0.044779185 0.10678341
-0.066173114 -0.045897849 0.10945106
-0.065383121 -0.046081956 0.10989009
-0.065825202 -0.04715471 0.11244825
-0.064677261 -0.04710523 0.11233026
-0.063641936 -0.047137477 0.11240715
-0.063134387 -0.047568489 0.11343497
-0.062129263 -0.04763316 0.11358919
-0.060678206 -0.047352143 0.11291905
-0.059947353 -0.04763316 0.11358919
-0.054561511 -0.044157259 0.10530032
-0.05283957 -0.043571305 0.10390303
-0.052171972 -0.043848936 0.10456508
-0.05183756 -0.044422992 0.10593401
-0.051807784 -0.045286328 0.10799278
-0.049802691 -0.044422992 0.10593401
-0.049733374 -0.045286328 0.10799278
-0.050032429 -0.046529014 0.11095618
-0.049302183 -0.046847742 0.11171623
-0.048450723 -0.0470629 0.11222931
-0.047628898 -0.047317296 0.11283597
-0.046294931 -0.0470629 0.11222931
-0.045461457 -0.047317296 0.11283597
-0.044625212 -0.047581166 0.1134652
-0.043593019 -0.047644086 0.11361525
-0.040157478 -0.04501611 0.1073484
-0.038863473 -0.044713538 0.10662686
-0.037849985 -0.044726063 0.10665673
-0.037044629 -0.044992063 0.10729106
-0.036292829 -0.045340199 0.10812125
-0.034983695 -0.044992063 0.10729106
-0.034215949 -0.045340199 0.10812125
-0.033343062 -0.04556644 0.10866075
-0.032211404 -0.045442242 0.10836458
-0.031959601 -0.046592452 0.11110745
-0.031002613 -0.046758551 0.11150354
-0.030062519 -0.046962932 0.11199092
-0.028862098 -0.046760712 0.1115087
-0.027531426 -0.046323754 0.11046669
-0.026375923 -0.04615831 0.11007217
-0.025482142 -0.046456192 0.11078252
-0.024592225 -0.046787389 0.11157231
-0.023574654 -0.046894833 0.11182853
-0.022449058 -0.046787389 0.11157231
-0.021426562 -0.046894833 0.11182853
-0.020357458 -0.046906214 0.11185567
-0.01919407 -0.046689525 0.11133894
-0.018047115 -0.046489596 0.11086217
-0.01586112 -0.043420196 0.10354268
-0.014805564 -0.043241773 0.1031172
-0.013761654 -0.04307422 0.10271764
-0.0126743 -0.042734306 0.10190705
-0.011716867 -0.042812213 0.10209285
-0.010808838 -0.043101355 0.10278235
-0.0099463388 -0.043648433 0.10408694
-0.0091453623 -0.044617914 0.10639884
-0.0082314378 -0.045210946 0.10781302
-0.0072991848 -0.045859497 0.1093596
-0.0062672757 -0.045994706 0.10968203
-0.0051939394 -0.0458191 0.10926326
-0.0041285683 -0.045642611 0.1088424
-0.003072001 -0.045476787 0.10844696
-0.0020231504 -0.045313664 0.10805797
-0.00099005294 -0.045531366 0.10857712
5.2512347e-05 -0.045313664 0.10805797
0.0010955821 -0.045531366 0.10857712
0.0021586644 -0.045962848 0.10960605
0.0032316211 -0.046252772 0.11029743
0.0043206359 -0.046572641 0.11106021
0.0054086968 -0.046757597 0.11150127
0.0064576692 -0.046599347 0.11112389
0.0074911001 -0.046389751 0.11062407
0.0085045071 -0.046123616 0.10998943
0.0094596166 -0.045635059 0.10882438
0.010389252 -0.045133054 0.10762727
0.011358662 -0.04487906 0.10702159
0.012450434 -0.045110565 0.10757364
0.013568892 -0.04539587 0.108254
0.014709062 -0.045708027 0.1089984
0.015919549 -0.046182707 0.11013034
0.018153818 -0.04938319 0.11776242
0.01943361 -0.049764108 0.11867079
0.020655625 -0.049963068 0.11914524
0.02184996 -0.050077699 0.1194186
0.023043463 -0.050179087 0.11966038
0.024143847 -0.050077699 0.1194186
0.025341993 -0.050179087 0.11966038
0.026762974 -0.050693762 0.1208877
0.028024832 -0.050876763 0.1213241
0.02931154 -0.051088464 0.12182894
0.030594038 -0.051276866 0.12227821
0.031921651 -0.051524151 0.1228679
0.033291973 -0.051820278 0.12357407
0.033436336 -0.050253458 0.11983773
0.034783073 -0.050537899 0.12051602
0.036212396 -0.050920144 0.12142755
0.037615661 -0.051243044 0.12219756
0.038544871 -0.050920144 0.12142755
0.039962929 -0.051243044 0.12219756
0.041168142 -0.051282384 0.12229137
0.042231359 -0.051147562 0.12196986
0.043388918 -0.051131196 0.12193084
0.045475919 -0.052182198 0.12443713
0.051074263 -0.057105348 0.1361772
0.052780222 -0.057539295 0.13721202
0.054547444 -0.058017269 0.13835183
0.055415899 -0.057539295 0.13721202
0.057205018 -0.058017269 0.13835183
0.058950074 -0.058429871 0.13933574
0.060361266 -0.058500569 0.13950434
0.060548645 -0.057407878 0.13689864
0.062660448 -0.058147456 0.13866228
0.064608552 -0.058707498 0.1399978
0.065323986 -0.058147456 0.13866228
0.067297742 -0.058707498 0.1399978
0.069414511 -0.05936791 0.14157265
0.071445018 -0.059930597 0.14291447
0.077512994 -0.063794985 0.15212975
0.078612797 -0.063503124 0.15143375
0.080435216 -0.063794985 0.15212975
0.081521653 -0.063503124 0.15143375
0.082229264 -0.062931567 0.15007079
0.083582751 -0.062865496 0.14991322
0.084536187 -0.062505856 0.1490556
0.082840934 -0.060232379 0.14363413
0.083976828 -0.060058139 0.14321862
0.087040409 -0.061245941 0.14605114
0.090022109 -0.062339362 0.14865857
0.093782812 -0.06392967 0.15245092
0.092877664 -0.062339362 0.14865857
0.10529015 -0.069600657 0.16597435
0.10988329 -0.071553573 0.17063139
0.11244535 -0.072145939 0.17204399
0.11316091 -0.071553573 0.17063139
0.1157501 -0.072145939 0.17204399
0.12091685 -0.074305579 0.17719401
0.11760699 -0.071268551 0.16995171
0.11813136 -0.070606358 0.1683726
0.12087157 -0.071268551 0.16995171
0.12385951 -0.072057225 0.17183244
0.12532586 -0.07195159 0.17158054
0.12716021 -0.072057225 0.17183244
nan nan nan
nan nan nan
nan nan nan
nan nan nan
nan nan nan
-0.09335079 -0.048591454 0.11860477
-0.090283908 -0.047575615 0.11612525
-0.088043556 -0.046975356 0.11466011
-0.08723104 -0.047131356 0.11504087
-0.085889466 -0.047001842 0.11472475
-0.085021242 -0.047131356 0.11504087
-0.084758103 -0.047604125 0.11619484
-0.084969036 -0.048359331 0.11803818
-0.083629921 -0.048240826 0.11774893
-0.082701661 -0.048359331 0.11803818
-0.081562795 -0.04835625 0.11803067
-0.080513895 -0.04840719 0.118155
-0.079295568 -0.04835625 0.11803067
-0.075900272 -0.046957027 0.11461536
-0.073332958 -0.046036392 0.11236823
-0.071988709 -0.045867532 0.11195607
-0.071174502 -0.046036392 0.11236823
-0.069838166 -0.045867532 0.11195607
-0.068485849 -0.045682732 0.11150499
-0.069893397 -0.047362242 0.11560444
-0.068547681 -0.047200155 0.1152088
-0.067672774 -0.047362242 0.11560444
-0.066334665 -0.047200155 0.1152088
-0.065079853 -0.04709284 0.11494686
-0.064339183 -0.047360286 0.11559966
-0.063568257 -0.047614459 0.11622006
-0.059329804 -0.045234021 0.11040975
-0.058122884 -0.045120291 0.11013216
-0.056580953 -0.044737466 0.10919773
-0.054079708 -0.043567337 0.10634162
-0.053177964 -0.043665543 0.10658132
-0.05277577 -0.044185847 0.10785132
-0.051130664 -0.043665543 0.10658132
-0.052073393 -0.045379132 0.11076395
-0.051744428 -0.046032876 0.11235965
-0.051144265 -0.046468064 0.11342188
-0.050146811 -0.046553381 0.11363012
-0.049387682 -0.046868648 0.11439965
-0.048791669 -0.047356594 0.11559065
-0.047190201 -0.046868648 0.11439965
-0.044419985 -0.045168988 0.11025102
-0.043512531 -0.04532674 0.11063607
-0.042473823 -0.045352247 0.11069833
-0.041328259 -0.045262031 0.11047813
-0.040318821 -0.045320075 0.1106198
-0.03926339 -0.045328163 0.11063953
-0.038202882 -0.045330677 0.11064567
-0.037313856 -0.045542631 0.11116303
-0.036077514 -0.045330677 0.11064567
-0.036269799 -0.046955377 0.11461134
-0.035163376 -0.046947829 0.11459292
-0.033847045 -0.046650495 0.11386716
-0.032877255 -0.046826869 0.11429767
-0.031968784 -0.047105782 0.11497846
-0.030878499 -0.047127176 0.11503067
-0.0295818 -0.046823427 0.11428926
-0.028196145 -0.046350043 0.1131338
-0.027033061 -0.046219237 0.11281453
-0.026088301 -0.04646638 0.11341777
-0.02518872 -0.046819031 0.11427854
-0.023909682 -0.04646638 0.11341777
-0.022993566 -0.046819031 0.11427854
-0.020761719 -0.044393677 0.1083586
-0.019757092 -0.044474926 0.10855691
-0.018652162 -0.044326853 0.10819548
-0.017515203 -0.044080708 0.10759468
-0.016356543 -0.043745644 0.10677684
