# .PCD v0.7 - Point Cloud Data file format
VERSION 0.7
FIELDS x y z
SIZE 4 4 4
TYPE F F F
COUNT 1 1 1
WIDTH 1500
HEIGHT 1
VIEWPOINT 0 0 0 1 0 0 0
POINTS 1500
DATA ascii
0.026747409 -0.094534829 0.17350838
0.029457919 -0.098008513 0.17988394
0.031161858 -0.097933926 0.17974703
0.032839131 -0.097787745 0.17947873
0.034588132 -0.097859085 0.17960969
0.036411628 -0.098124407 0.18009664
0.038117327 -0.098062612 0.17998323
0.039963316 -0.098351434 0.18051334
0.041651934 -0.098245047 0.18031807
0.043219261 -0.097872488 0.17963427
0.045115624 -0.098245047 0.18031807
0.046669815 -0.097872488 0.17963427
0.047196306 -0.095448092 0.17518456
0.048382428 -0.094478719 0.17340538
0.049855705 -0.094115928 0.17273952
0.05157594 -0.094227694 0.17294466
0.053411026 -0.094535768 0.17351009
0.055175323 -0.094703697 0.17381831
0.056812931 -0.094650693 0.17372103
0.058514159 -0.094703697 0.17381831
0.060149901 -0.094650693 0.17372103
0.064445794 -0.098673537 0.18110453
0.065713465 -0.097970262 0.17981373
0.066812128 -0.097057469 0.17813841
0.068365462 -0.09683428 0.17772876
0.070129722 -0.096913449 0.17787406
0.072226748 -0.097437754 0.17883638
0.073546469 -0.096913449 0.17787406
0.07424257 -0.095609836 0.17548142
0.076147497 -0.095886275 0.17598881
0.077668525 -0.0956778 0.17560616
0.078875847 -0.095099941 0.17454557
0.079816356 -0.094231151 0.172951
0.082228653 -0.095099941 0.17454557
0.087365195 -0.099021748 0.18174361
0.089158803 -0.099075153 0.18184164
0.091227487 -0.099426322 0.18248618
0.092937991 -0.099381238 0.18240342
0.094732828 -0.099426322 0.18248618
0.094202809 -0.097074062 0.17816885
0.095781922 -0.096940368 0.17792347
0.09751261 -0.096962094 0.17796335
0.099542074 -0.097275026 0.17853771
0.10093108 -0.096962094 0.17796335
0.10297157 -0.097275026 0.17853771
0.10935037 -0.10160889 0.18649204
0.11223042 -0.10260441 0.18831921
0.11496648 -0.10343879 0.18985061
0.11584781 -0.10260441 0.18831921
0.11861329 -0.10343879 0.18985061
0.12202083 -0.10479935 0.19234778
0.12477294 -0.10556481 0.19375269
0.1257156 -0.10479935 0.19234778
0.12849471 -0.10556481 0.19375269
0.13190073 -0.10681611 0.19604932
0.138449 -0.11054102 0.20288599
0.13978924 -0.11006203 0.20200686
0.14234619 -0.11054102 0.20288599
0.14385152 -0.11020144 0.20226271
0.14534026 -0.10985838 0.20163307
0.14535736 -0.10842659 0.19900517
0.14582889 -0.10736654 0.19705957
0.1475181 -0.10721869 0.19678821
0.14961417 -0.10736654 0.19705957
0.15129817 -0.10721869 0.19678821
0.16456681 -0.11518274 0.21140535
0.16729634 -0.11566609 0.21229249
nan nan nan
nan nan nan
nan nan nan
nan nan nan
nan nan nan
nan nan nan
nan nan nan
nan nan nan
nan nan nan
nan nan nan
nan nan nan
nan nan nan
nan nan nan
nan nan nan
nan nan nan
nan nan nan
nan nan nan
nan nan nan
nan nan nan
nan nan nan
nan nan nan
-0.11975333 -0.10948526 0.20457292
nan nan nan
nan nan nan
-0.11184958 -0.10755308 0.20096265
-0.11049405 -0.10811532 0.20201318
-0.10960075 -0.109158 0.20396143
-0.10661362 -0.10811532 0.20201318
-0.1056829 -0.109158 0.20396143
-0.099347129 -0.10455187 0.19535488
-0.095522232 -0.10246167 0.19144934
-0.093338311 -0.10208416 0.19074397
-0.091844723 -0.10246167 0.19144934
-0.089674354 -0.10208416 0.19074397
-0.087594256 -0.10179581 0.1902052
-0.08782652 -0.10423969 0.19477159
-0.085780583 -0.10402712 0.19437441
-0.08393155 -0.10404921 0.19441567
-0.082046881 -0.10402712 0.19437441
-0.080197051 -0.10404921 0.19441567
-0.078724593 -0.10457363 0.19539554
-0.077010512 -0.10479485 0.1958089
-0.069830336 -0.097402774 0.18199682
-0.068301693 -0.097716562 0.18258312
-0.066719599 -0.097968392 0.18305369
-0.064567909 -0.097374842 0.18194464
-0.063203357 -0.097968392 0.18305369
-0.061072968 -0.097374842 0.18194464
-0.058566261 -0.096128657 0.17961614
-0.058161937 -0.098362327 0.18378974
-0.055973634 -0.097624376 0.18241088
-0.054486312 -0.098100819 0.18330112
-0.052884545 -0.098396152 0.18385294
-0.051181488 -0.098516911 0.18407859
-0.049112689 -0.097917132 0.1829579
-0.047645558 -0.098516911 0.18407859
-0.045598291 -0.097917132 0.1829579
-0.043730073 -0.097669177 0.1824946
-0.041994184 -0.097708412 0.18256791
-0.038273524 -0.092931844 0.1736429
-0.036528457 -0.092735521 0.17327607
-0.0346977 -0.092292532 0.17244835
-0.032745697 -0.091466449 0.17090482
-0.030931903 -0.090959623 0.1699578
-0.029162616 -0.090534478 0.16916342
-0.027505109 -0.090426661 0.16896197
-0.025834182 -0.090258434 0.16864765
-0.024259554 -0.090426661 0.16896197
-0.022594664 -0.090258434 0.16864765
-0.020979283 -0.090277269 0.16868284
-0.019342808 -0.090200901 0.16854014
-0.017749948 -0.090332538 0.16878609
-0.016169442 -0.09055981 0.16921078
-0.014597701 -0.090892479 0.16983235
-0.013100184 -0.091829121 0.17158246
-0.011513535 -0.092320636 0.17250085
-0.0099138292 -0.092855074 0.17349946
-0.0082730828 -0.093143411 0.17403822
-0.006640357 -0.093690947 0.17506127
-0.0049624545 -0.093756229 0.17518325
-0.0032830145 -0.093844526 0.17534824
-0.0016019412 -0.094022974 0.17568168
8.5213032e-05 -0.093844526 0.17534824
0.0017726914 -0.094022974 0.17568168
0.0034725985 -0.094365127 0.17632098
0.0051827896 -0.094670802 0.17689213
0.0069191144 -0.095185071 0.17785305
0.0086420169 -0.095347613 0.17815675
0.010340964 -0.095235802 0.17794783
0.012043237 -0.095181987 0.17784728
0.013812692 -0.095606551 0.17864059
0.015583392 -0.095944971 0.17927292
0.017348872 -0.0961871 0.17972533
0.019037528 -0.095998004 0.17937203
0.020677004 -0.095612906 0.17865245
0.022299765 -0.095215432 0.17790978
0.023882566 -0.094716072 0.17697673
0.025717195 -0.095215432 0.17790978
0.027282076 -0.094716072 0.17697673
0.028857887 -0.094311006 0.17621987
0.030569827 -0.094371065 0.17633209
0.032215517 -0.094231039 0.17607044
0.033900969 -0.09421549 0.17604138
0.035605427 -0.094251715 0.17610908
0.039020412 -0.098607279 0.18424743
0.040844649 -0.098739393 0.18449429
0.042560238 -0.098608792 0.18425027
0.044150703 -0.09821029 0.18350567
0.045661971 -0.097672977 0.1825017
0.047675624 -0.09821029 0.18350567
0.049167607 -0.097672977 0.1825017
0.050436843 -0.096745394 0.1807685
0.051880021 -0.096202083 0.17975335
0.053595617 -0.096182659 0.17971705
0.054610878 -0.094946846 0.17740792
0.056506317 -0.095269777 0.17801133
0.058193132 -0.095232345 0.17794138
0.059882343 -0.095200852 0.17788254
0.061611172 -0.095232345 0.17794138
0.063299254 -0.095200852 0.17788254
0.064577967 -0.094571516 0.17670663
0.068488054 -0.097729266 0.18260688
0.070230745 -0.097713761 0.18257791
0.072050668 -0.097803861 0.18274626
0.0740797 -0.098166771 0.18342435
0.075561002 -0.097803861 0.18274626
0.077603057 -0.098166771 0.18342435
0.079390019 -0.098198056 0.1834828
0.079079174 -0.09568952 0.17879561
0.080396757 -0.095216207 0.17791122
0.081563033 -0.094587132 0.1767358
0.083814219 -0.095216207 0.17791122
0.084957913 -0.094587132 0.1767358
0.086593375 -0.094519474 0.17660938
0.093129553 -0.09970095 0.18629095
0.094641529 -0.099409752 0.18574685
0.095768832 -0.098732725 0.18448184
0.098209508 -0.099409752 0.18574685
0.099312499 -0.098732725 0.18448184
0.1000697 -0.097741701 0.18263011
0.10067539 -0.096639372 0.18057041
0.10346068 -0.097631171 0.18242358
0.10414393 -0.096639372 0.18057041
0.10696481 -0.097631171 0.18242358
0.11152953 -0.10015702 0.18714312
0.11612512 -0.10263003 0.19176394
0.11708193 -0.10186011 0.19032535
0.11980867 -0.10263003 0.19176394
0.12522435 -0.10564514 0.19739766
0.12913951 -0.10732328 0.20053327
0.12682585 -0.10385163 0.1940465
0.13048948 -0.10530417 0.19676055
0.13375701 -0.10640013 0.19880837
0.13659546 -0.10712874 0.20016976
0.13757588 -0.10640013 0.19880837
0.14400205 -0.10984553 0.20524608
0.14667335 -0.11037232 0.20623037
0.14874241 -0.11043789 0.20635292
0.15063478 -0.11037232 0.20623037
0.15270621 -0.11043789 0.20635292
0.15113303 -0.10789981 0.20161049
0.15275025 -0.10767484 0.20119016
0.15500572 -0.10789981 0.20161049
0.16085105 -0.11058728 0.20663205
0.16443872 -0.111676 0.20866631
nan nan nan
nan nan nan
nan nan nan
nan nan nan
nan nan nan
nan nan nan
nan nan nan
nan nan nan
nan nan nan
nan nan nan
nan nan nan
nan nan nan
nan nan nan
nan nan nan
nan nan nan
nan nan nan
nan nan nan
nan nan nan
nan nan nan
nan nan nan
nan nan nan
nan nan nan
nan nan nan
nan nan nan
-0.11192983 -0.10568886 0.20110686
-0.11064809 -0.10631315 0.2022948
-0.10806681 -0.10568886 0.20110686
-0.10627746 -0.10583041 0.20137621
-0.10471966 -0.10621206 0.20210244
-0.10185963 -0.10526241 0.2002954
-0.098665446 -0.10392422 0.19774909
-0.096484423 -0.10362163 0.1971733
-0.094866924 -0.10392422 0.19774909
-0.095141418 -0.10635417 0.20237283
-0.0931032 -0.10624626 0.20216751
-0.09112753 -0.10620667 0.20209217
-0.089637294 -0.10674343 0.20311353
-0.088144913 -0.10730145 0.20417535
-0.085735723 -0.10674343 0.20311353
-0.077629216 -0.098900929 0.18819065
-0.076058939 -0.0992103 0.18877934
-0.074332125 -0.09932562 0.18899877
-0.071935818 -0.098529704 0.18748429
-0.070145763 -0.09854462 0.18751267
-0.068485767 -0.098747857 0.1878994
-0.06654387 -0.09854462 0.18751267
-0.066648819 -0.10144556 0.19303264
-0.06451261 -0.10100366 0.19219179
-0.062472012 -0.10068984 0.19159463
-0.060228545 -0.10002006 0.19032016
-0.058135465 -0.099565916 0.18945602
-0.056226123 -0.099407263 0.18915413
-0.054351524 -0.09930151 0.18895289
-0.052570011 -0.099364378 0.18907253
-0.050721966 -0.09930151 0.18895289
-0.046895143 -0.095216237 0.18117936
-0.044849642 -0.094572283 0.17995404
-0.04275012 -0.09375824 0.17840506
-0.040897757 -0.093440928 0.17780125
-0.039147411 -0.093339175 0.17760766
-0.037206784 -0.092753798 0.17649378
-0.035127789 -0.091751136 0.17458589
-0.033088397 -0.09075658 0.17269343
-0.031263523 -0.090276487 0.1717799
-0.029590812 -0.090206772 0.17164725
-0.027999446 -0.09039145 0.17199865
-0.026293674 -0.090206772 0.17164725
-0.02469556 -0.09039145 0.17199865
-0.023071276 -0.090499938 0.17220509
-0.021859055 -0.092366382 0.17575659
-0.020234553 -0.092657313 0.17631018
-0.018592 -0.092911176 0.17679325
-0.016974567 -0.093354225 0.1776363
-0.015328133 -0.093718976 0.17833035
-0.01359868 -0.093604036 0.17811163
-0.01189495 -0.093658559 0.17821537
-0.010231841 -0.094105013 0.1790649
-0.0085639386 -0.094678871 0.18015686
-0.0068790484 -0.095307998 0.18135396
-0.0051531759 -0.095603384 0.18191603
-0.0034106597 -0.095734678 0.18216586
-0.0016675615 -0.096109003 0.18287812
8.8526162e-05 -0.095734678 0.18216586
0.001845306 -0.096109003 0.18287812
0.0036160082 -0.096489742 0.1836026
0.0054015638 -0.096887283 0.18435906
0.0072013638 -0.097280957 0.18510816
0.0089917127 -0.097416356 0.18536578
0.010757572 -0.097285524 0.18511684
0.012506295 -0.09705881 0.18468544
0.014284675 -0.097089991 0.18474478
0.016153308 -0.097659938 0.18582928
0.018015487 -0.098081335 0.18663113
0.019807888 -0.098080948 0.1866304
0.021099832 -0.095808186 0.18230574
0.022782909 -0.095523678 0.18176435
0.024392862 -0.094994888 0.18075816
0.026002565 -0.094535448 0.17988394
0.027865008 -0.094994888 0.18075816
0.029457919 -0.094535448 0.17988394
0.031161858 -0.094463497 0.17974703
0.032839131 -0.094322495 0.17947873
0.034588132 -0.094391324 0.17960969
0.036430087 -0.094695218 0.18018794
0.038117327 -0.094587632 0.17998323
0.039963316 -0.094866216 0.18051334
0.041651934 -0.094763599 0.18031807
0.043219261 -0.094404235 0.17963427
0.046602555 -0.097886831 0.18626103
0.048630785 -0.098370902 0.18718213
0.050180405 -0.097886831 0.18626103
0.051608283 -0.097206794 0.18496703
0.053188536 -0.096849464 0.18428709
0.054984126 -0.096894614 0.18437301
0.057172135 -0.097606905 0.18572837
0.059001025 -0.097681537 0.18587038
0.060606189 -0.097392276 0.18531996
0.060966995 -0.095176913 0.18110453
0.062801838 -0.095321789 0.1813802
0.064445794 -0.095176913 0.18110453
0.065713465 -0.094498552 0.17981373
0.066879675 -0.093712755 0.1783185
0.068365462 -0.093402818 0.17772876
0.070129722 -0.093479186 0.17787406
0.075695038 -0.098498017 0.187424
0.077354081 -0.098318741 0.18708287
0.079295233 -0.098498017 0.187424
0.08094772 -0.098318741 0.18708287
0.082515433 -0.098046511 0.18656486
0.084340081 -0.098084666 0.18663748
0.083874121 -0.09551277 0.18174361
0.085665837 -0.095564291 0.18184164
0.087365195 -0.09551277 0.18174361
0.089158803 -0.095564291 0.18184164
0.090996623 -0.095660314 0.18202436
0.092937991 -0.095859528 0.18240342
0.097821184 -0.099029511 0.18843535
0.10039268 -0.099786617 0.18987596
0.10144079 -0.099029511 0.18843535
0.10237436 -0.098189101 0.18683618
0.1037532 -0.097797349 0.18609074
0.10626419 -0.098467954 0.18736678
0.10530455 -0.095953792 0.18258278
0.10804369 -0.096837096 0.18426357
0.11223042 -0.098968484 0.18831921
0.11496648 -0.099773295 0.18985061
0.11806686 -0.10086422 0.19192643
0.1220982 -0.10270468 0.19542852
0.12540759 -0.10389133 0.19768651
0.13082094 -0.10675958 0.20314427
0.1334236 -0.10728352 0.20414121
0.1347231 -0.10675958 0.20314427
0.13541508 -0.10577607 0.20127282
0.138449 -0.10662385 0.20288599
0.1405561 -0.10674421 0.20311503
0.14234619 -0.10662385 0.20288599
0.14385152 -0.10629629 0.20226271
0.15194733 -0.11078251 0.21079917
0.15404566 -0.11083556 0.21090011
0.15599653 -0.11078251 0.21079917
0.15954557 -0.11185125 0.21283278
0.16304734 -0.1128602 0.21475266
0.16363384 -0.11185125 0.21283278
0.16259545 -0.1097702 0.20887293
0.16729634 -0.1115673 0.21229249
nan nan nan
nan nan nan
nan nan nan
nan nan nan
nan nan nan
nan nan nan
nan nan nan
nan nan nan
nan nan nan
nan nan nan
nan nan nan
nan nan nan
nan nan nan
nan nan nan
nan nan nan
nan nan nan
nan nan nan
nan nan nan
nan nan nan
nan nan nan
nan nan nan
nan nan nan
nan nan nan
nan nan nan
-0.11184958 -0.10367305 0.20096265
-0.11049405 -0.10421499 0.20201318
-0.10798933 -0.10367305 0.20096265
-0.10661362 -0.10421499 0.20201318
-0.10611429 -0.10564956 0.20479399
-0.10383184 -0.10532949 0.20417355
-0.10461701 -0.10816886 0.20967746
-0.10217622 -0.10771872 0.20880491
-0.10058936 -0.10816886 0.20967746
-0.098778814 -0.10839192 0.21010983
-0.096856743 -0.10849936 0.2103181
-0.094693996 -0.10833602 0.21000148
-0.092873119 -0.10856521 0.21044575
-0.084085204 -0.10047919 0.19477159
-0.082046881 -0.10027429 0.19437441
-0.080197051 -0.10029558 0.19441567
-0.078724593 -0.10080108 0.19539554
-0.077154562 -0.10120327 0.19617516
-0.074344084 -0.099957779 0.19376087
-0.072264902 -0.099656843 0.19317752
-0.071923107 -0.10179911 0.19733016
-0.070225559 -0.10208648 0.19788721
-0.068132631 -0.10179911 0.19733016
-0.066137649 -0.10164581 0.197033
-0.064250141 -0.10165353 0.19704796
-0.062166564 -0.10134208 0.19644424
-0.060017813 -0.10090157 0.19559033
-0.057938635 -0.10055334 0.19491532
-0.052884545 -0.09484645 0.18385294
-0.051181488 -0.094962865 0.18407859
-0.049352951 -0.09484645 0.18385294
-0.047645558 -0.094962865 0.18407859
-0.045598291 -0.094384722 0.1829579
-0.043730073 -0.0941457 0.1824946
-0.041994184 -0.094183527 0.18256791
-0.040120363 -0.093901806 0.18202181
-0.037903588 -0.092755169 0.17979914
-0.035612006 -0.091307268 0.17699248
-0.033593148 -0.090448491 0.17532781
-0.03260453 -0.092419356 0.17914818
-0.030967792 -0.092670336 0.17963471
-0.029335743 -0.092965797 0.18020743
-0.027517227 -0.092670336 0.17963471
-0.025874177 -0.092965797 0.18020743
-0.024212338 -0.093231276 0.18072204
-0.022440623 -0.093082003 0.18043268
-0.020797463 -0.093485594 0.18121502
-0.019089958 -0.093647249 0.18152837
-0.017410863 -0.093994804 0.18220207
-0.01571212 -0.094302081 0.18279772
-0.013909142 -0.093982361 0.18217796
-0.012147476 -0.093889952 0.18199883
-0.010434656 -0.094207473 0.18261431
-0.0087297745 -0.094739437 0.1836455
-0.0070045469 -0.095264092 0.18466249
-0.005254935 -0.095700428 0.18550831
-0.0034812402 -0.095920868 0.18593562
-0.0017033271 -0.096367031 0.18680046
9.0358124e-05 -0.095920868 0.18593562
0.001884884 -0.096367031 0.18680046
0.0036941466 -0.096764058 0.18757007
0.0055161072 -0.097124361 0.1882685
0.0073417504 -0.097355604 0.18871674
0.0091802338 -0.097631827 0.18925218
0.010975119 -0.097429708 0.18886039
0.012748345 -0.097119927 0.1882599
0.014532145 -0.096957646 0.18794534
0.01643675 -0.097548187 0.18909004
0.018358445 -0.098112531 0.190184
0.020209918 -0.098233417 0.19041833
0.021993911 -0.098033473 0.19003074
0.023775496 -0.097854242 0.18968332
0.025512068 -0.097528443 0.18905179
0.027282894 -0.097368196 0.18874116
0.029143522 -0.097528443 0.18905179
0.030908382 -0.097368196 0.18874116
0.031831671 -0.094721451 0.18361063
0.033519041 -0.09450689 0.18319473
0.035335775 -0.09466029 0.18349206
0.037273496 -0.095107809 0.18435957
0.039020412 -0.09504997 0.18424743
0.040844649 -0.095177308 0.18449429
0.042560238 -0.095051423 0.18425027
0.044150703 -0.094667301 0.18350567
0.045661971 -0.094149373 0.1825017
0.0469645 -0.093255252 0.1807685
0.049167607 -0.094149373 0.1825017
0.052758828 -0.097548485 0.18909064
0.054524601 -0.097458534 0.18891627
0.056355916 -0.097487755 0.18897291
0.058244515 -0.097611137 0.18921208
0.060232878 -0.0978892 0.18975107
0.061866213 -0.097590886 0.18917282
0.063573055 -0.097422242 0.18884592
0.065135762 -0.097048208 0.18812089
0.067200556 -0.097422242 0.18884592
0.067174859 -0.094825633 0.18381259
0.068488054 -0.094203629 0.18260688
0.070244715 -0.094207421 0.18261422
0.072050668 -0.094275534 0.18274626
0.0740797 -0.094625346 0.18342435
0.075865544 -0.094655499 0.1834828
0.077603057 -0.094625346 0.18342435
0.082996249 -0.098955147 0.19181734
0.084685527 -0.098776676 0.1914714
0.086662471 -0.098934188 0.19177672
0.088713385 -0.099167839 0.19222963
0.090520777 -0.099125288 0.19214715
0.092405885 -0.099167839 0.19222963
0.091536187 -0.096310243 0.18669039
0.093255855 -0.096234523 0.18654361
0.094641529 -0.095823489 0.18574685
0.095768832 -0.095170893 0.18448184
0.09670534 -0.094355859 0.18290196
0.099312499 -0.095170893 0.18448184
0.104796 -0.098665416 0.19125573
0.10642622 -0.09847419 0.19088505
0.10900263 -0.099150091 0.19219524
0.11138835 -0.099632934 0.19313118
0.11269446 -0.099150091 0.19219524
0.11244478 -0.097336076 0.18867889
0.11612512 -0.098927602 0.19176394
0.11969955 -0.10038061 0.1945805
0.11980867 -0.098927602 0.19176394
0.12343721 -0.10038061 0.1945805
0.13259678 -0.10622109 0.20590185
0.13584118 -0.10722102 0.20784014
0.13655189 -0.10622109 0.20590185
0.13983352 -0.10722102 0.20784014
0.14354086 -0.10851464 0.21034771
0.14603804 -0.10887017 0.21103689
0.14400205 -0.10588279 0.20524608
0.14650676 -0.10626973 0.20599614
0.14874241 -0.10645379 0.20635292
0.15119083 -0.10678329 0.20699163
0.15270621 -0.10645379 0.20635292
0.16390391 -0.11279596 0.21864675
0.16688854 -0.11339705 0.21981195
0.16810384 -0.11279596 0.21864675
0.17111084 -0.11339705 0.21981195
0.17413729 -0.11399624 0.22097342
nan nan nan
nan nan nan
nan nan nan
nan nan nan
nan nan nan
nan nan nan
nan nan nan
nan nan nan
nan nan nan
nan nan nan
nan nan nan
nan nan nan
nan nan nan
nan nan nan
nan nan nan
nan nan nan
nan nan nan
nan nan nan
nan nan nan
nan nan nan
nan nan nan
nan nan nan
nan nan nan
nan nan nan
-0.11192983 -0.10180603 0.20110686
nan nan nan
-0.10806681 -0.10180603 0.20110686
-0.10676225 -0.1024074 0.2022948
-0.10804399 -0.10555786 0.20851819
-0.10847364 -0.10797912 0.21330112
-0.1079458 -0.1095221 0.21634914
-0.10437638 -0.10797912 0.21330112
-0.10378999 -0.1095221 0.21634914
-0.10243453 -0.11030002 0.21788582
-0.093184277 -0.10243209 0.20234357
-0.09112753 -0.10230482 0.20209217
-0.089637294 -0.10282186 0.20311353
-0.087245584 -0.10230482 0.20209217
-0.085735723 -0.10282186 0.20311353
-0.08422295 -0.10335939 0.20417535
-0.082506292 -0.10366637 0.20478176
-0.081839427 -0.10533959 0.20808701
-0.078924134 -0.10413007 0.20569775
-0.076616779 -0.10368112 0.2048109
-0.074972935 -0.10413007 0.20569775
-0.072682612 -0.10368112 0.2048109
-0.07053943 -0.10342294 0.20430088
-0.06840533 -0.10316367 0.20378873
-0.065754727 -0.10208723 0.20166235
-0.060228545 -0.096345492 0.19032016
-0.058135465 -0.095908038 0.18945602
-0.056226123 -0.095755212 0.18915413
-0.054351524 -0.095653348 0.18895289
-0.052592702 -0.095755212 0.18915413
-0.050721966 -0.095653348 0.18895289
-0.048938155 -0.095713913 0.18907253
-0.046780232 -0.095019251 0.18770032
-0.04503252 -0.095135525 0.18792999
-0.043219689 -0.09511818 0.18789573
-0.041944947 -0.096335173 0.19029976
-0.039603718 -0.095102057 0.18786387
-0.037161142 -0.093496218 0.18469171
-0.035161022 -0.092898391 0.18351078
-0.033293769 -0.092607051 0.18293527
-0.031601761 -0.092797838 0.18331215
-0.029779805 -0.092607051 0.18293527
-0.028080555 -0.092797838 0.18331215
-0.026390722 -0.093047358 0.18380505
-0.024736905 -0.093468741 0.18463743
-0.022948502 -0.093407393 0.18451625
-0.021274038 -0.093838349 0.18536755
-0.019523313 -0.093980931 0.1856492
-0.017796313 -0.094277844 0.18623574
-0.016058924 -0.094579935 0.18683249
-0.014202877 -0.094171278 0.18602523
-0.012379931 -0.093896069 0.18548158
-0.010614732 -0.094039932 0.18576577
-0.00887815 -0.094546691 0.18676682
-0.0071276235 -0.095123976 0.18790719
-0.0053561982 -0.095719248 0.18908307
-0.0035508613 -0.096008331 0.18965413
-0.0017378447 -0.096480049 0.19058594
9.2165188e-05 -0.096008331 0.18965413
0.0019230808 -0.096480049 0.19058594
0.0037691342 -0.096880786 0.19137757
0.0056274403 -0.097230501 0.19206838
0.0074848221 -0.097395502 0.19239433
0.0093539851 -0.097618125 0.19283409
0.011169475 -0.097299591 0.19220488
0.012972274 -0.096976548 0.19156674
0.014775245 -0.096734889 0.19108936
0.016717844 -0.097359776 0.19232376
0.01867713 -0.097947836 0.19348541
0.020567449 -0.098100506 0.19378699
0.022424569 -0.098082624 0.19375168
0.024245379 -0.097920842 0.19343209
0.026069764 -0.097795501 0.19318449
0.027932299 -0.097820416 0.19323371
0.029780604 -0.097795501 0.19318449
0.031644087 -0.097820416 0.19323371
0.033461541 -0.097708181 0.193012
0.035197891 -0.097383335 0.1923703
0.037002735 -0.097270936 0.19214827
0.038855519 -0.097289257 0.19218445
0.039940838 -0.095471419 0.18859352
0.041683879 -0.095315278 0.18828508
0.043399505 -0.095112033 0.1878836
0.045035243 -0.094756939 0.18718213
0.046602555 -0.094290651 0.18626103
0.048055291 -0.093635589 0.18496703
0.049648605 -0.093291387 0.18428709
0.051608283 -0.093635589 0.18496703
0.053188536 -0.093291387 0.18428709
0.054984126 -0.093334876 0.18437301
0.059485011 -0.097824588 0.19324194
0.061438467 -0.097980045 0.19354904
0.063272119 -0.097940929 0.19347176
0.065117233 -0.097921282 0.19343296
0.066882558 -0.097786076 0.19316587
0.068832844 -0.097921282 0.19343296
0.070593044 -0.097786076 0.19316587
0.072089627 -0.097301982 0.1922096
0.071996614 -0.094750099 0.18716861
0.073826857 -0.094791956 0.18725131
0.075695038 -0.094879381 0.187424
0.077354081 -0.094706684 0.18708287
0.078931749 -0.094444461 0.18656486
0.08094772 -0.094706684 0.18708287
0.082515433 -0.094444461 0.18656486
0.088630557 -0.099287577 0.19613193
0.090866439 -0.099673875 0.196895
0.092617437 -0.099523365 0.1965977
0.094165474 -0.099165142 0.19589007
0.096393846 -0.099523365 0.1965977
0.097928293 -0.099165142 0.19589007
0.097256698 -0.096628629 0.19087946
0.097821184 -0.095391348 0.18843535
0.098785467 -0.094581813 0.18683618
0.10144079 -0.095391348 0.18843535
0.10237436 -0.094581813 0.18683618
0.1039348 -0.094369337 0.18641648
0.11218902 -0.10013886 0.19781354
0.11435443 -0.10037193 0.19827394
0.11598878 -0.10013886 0.19781354
0.11816303 -0.10037193 0.19827394
0.1209259 -0.10108966 0.19969173
0.12161026 -0.10007455 0.19768651
0.1220982 -0.098931491 0.19542852
0.12540759 -0.10007455 0.19768651
0.13082094 -0.10283743 0.20314427
0.1334236 -0.1033421 0.20414121
0.1347231 -0.10283743 0.20314427
0.14203832 -0.10687356 0.21111721
0.14786872 -0.10969459 0.21668985
0.15116706 -0.11058499 0.21844874
0.15203108 -0.10969459 0.21668985
0.1553632 -0.11058499 0.21844874
0.15194733 -0.10671256 0.21079917
0.15455399 -0.10711596 0.21159606
0.15599653 -0.10671256 0.21079917
0.15861851 -0.10711596 0.21159606
0.16304734 -0.10871393 0.21475266
0.17191093 -0.11319194 0.2235985
0.17368819 -0.11295115 0.22312285
0.1771881 -0.11382283 0.22484475
nan nan nan
nan nan nan
nan nan nan
nan nan nan
nan nan nan
nan nan nan
nan nan nan
nan nan nan
nan nan nan
nan nan nan
nan nan nan
nan nan nan
nan nan nan
nan nan nan
nan nan nan
nan nan nan
nan nan nan
nan nan nan
nan nan nan
nan nan nan
nan nan nan
nan nan nan
nan nan nan
nan nan nan
nan nan nan
nan nan nan
nan nan nan
-0.10800406 -0.10162296 0.20464779
-0.10905407 -0.10451292 0.21046759
-0.11029898 -0.10770234 0.21689042
-0.10501125 -0.10451292 0.21046759
-0.10613277 -0.10770234 0.21689042
-0.10058936 -0.10412056 0.20967746
-0.098661833 -0.10421172 0.20986101
-0.096856743 -0.10443869 0.2103181
-0.094693996 -0.10428147 0.21000148
-0.092816792 -0.10443869 0.2103181
-0.090660118 -0.10428147 0.21000148
-0.088830709 -0.10450207 0.21044575
-0.088654131 -0.10672265 0.21491754
-0.085970655 -0.10595933 0.21338037
-0.083472855 -0.10539316 0.2122402
-0.080869943 -0.10466262 0.21076904
-0.078797571 -0.10459882 0.21064056
-0.07682132 -0.10466262 0.21076904
-0.074751422 -0.10459882 0.21064056
-0.068132631 -0.097989209 0.19733016
-0.066137649 -0.09784165 0.197033
-0.064126395 -0.097660616 0.19666843
-0.062166564 -0.097549282 0.19644424
-0.060017813 -0.097125247 0.19559033
-0.057938635 -0.09679006 0.19491532
-0.056141652 -0.096919633 0.19517626
-0.054194551 -0.09679006 0.19491532
-0.05239255 -0.096919633 0.19517626
-0.052284952 -0.10030957 0.20200288
-0.049962401 -0.099547572 0.20046839
-0.047785267 -0.09902586 0.19941777
-0.045113023 -0.09739171 0.19612692
-0.042842422 -0.096520022 0.19437152
-0.040468913 -0.095326491 0.19196799
-0.038074289 -0.093966894 0.18923005
-0.036070343 -0.093483545 0.18825668
-0.034179959 -0.093259007 0.18780451
-0.032415658 -0.093372621 0.18803331
-0.030572463 -0.093259007 0.18780451
-0.028803764 -0.093372621 0.18803331
-0.027048079 -0.093546458 0.18838339
-0.025353702 -0.093972445 0.18924123
-0.022440623 -0.089598343 0.18043268
-0.020797463 -0.089986831 0.18121502
-0.019089958 -0.090142429 0.18152837
-0.017410863 -0.090476975 0.18220207
-0.015710866 -0.090765506 0.18278311
-0.013909142 -0.090465009 0.18217796
-0.012147476 -0.090376057 0.18199883
-0.010434656 -0.090681687 0.18261431
-0.0087297745 -0.091193751 0.1836455
-0.0070045469 -0.091698758 0.18466249
-0.005254935 -0.09211877 0.18550831
-0.0034812402 -0.092330962 0.18593562
-0.0017033271 -0.092760421 0.18680046
9.0358124e-05 -0.092330962 0.18593562
0.001884884 -0.092760421 0.18680046
0.0036941466 -0.093142591 0.18757007
0.0055161072 -0.093489416 0.1882685
0.0073417504 -0.093712002 0.18871674
0.0091802338 -0.093977891 0.18925218
0.010975119 -0.093783326 0.18886039
0.012748345 -0.093485147 0.1882599
0.014521596 -0.09326119 0.1878089
0.01643675 -0.093897372 0.18909004
0.018358445 -0.094440602 0.190184
0.020209918 -0.094556965 0.19041833
0.022841487 -0.098001003 0.19735391
0.024695678 -0.097837478 0.19702461
0.026601421 -0.097886935 0.19712421
0.028554359 -0.09809196 0.19753708
0.030506609 -0.098269202 0.19789402
0.032348808 -0.09809196 0.19753708
0.034307912 -0.098269202 0.19789402
0.036092475 -0.097954139 0.19725955
0.03791042 -0.097756587 0.19686171
0.039712701 -0.097539321 0.19642419
0.041543134 -0.097407773 0.19615927
0.04336847 -0.097276211 0.19589433
0.044910002 -0.096545473 0.19442278
0.046572492 -0.096122734 0.19357146
0.047450967 -0.094176397 0.18965195
0.049126625 -0.093897663 0.18909064
0.050895751 -0.09381108 0.18891627
0.052758828 -0.093897663 0.18909064
0.054524601 -0.09381108 0.18891627
0.056355916 -0.093839206 0.18897291
0.058244515 -0.093957976 0.18921208
0.060188714 -0.094156541 0.18961196
0.061866213 -0.093938477 0.18917282
0.066549718 -0.098166995 0.19768819
0.068354882 -0.098032884 0.19741812
0.069926582 -0.097580232 0.19650657
0.072147042 -0.098032884 0.19741812
0.07370124 -0.097580232 0.19650657
0.075343035 -0.097263262 0.19586827
0.077407897 -0.097494595 0.19633411
0.079326458 -0.097535029 0.19641554
0.079311669 -0.095251679 0.19181734
0.081007592 -0.095079891 0.1914714
0.082996249 -0.095251679 0.19181734
0.084685527 -0.095079891 0.1914714
0.08644513 -0.094992675 0.19129576
0.088713385 -0.095456414 0.19222963
0.094610736 -0.099726573 0.20082885
0.096364491 -0.099545702 0.20046462
0.098468415 -0.099726573 0.20082885
0.10021517 -0.099545702 0.20046462
0.10195727 -0.099367104 0.20010497
0.10296623 -0.098493837 0.19834639
0.10112221 -0.094972797 0.19125573
0.10273515 -0.094766207 0.19083971
0.104796 -0.094972797 0.19125573
0.10640094 -0.094766207 0.19083971
0.10900263 -0.095439337 0.19219524
0.11138835 -0.095904104 0.19313118
0.11873518 -0.10055513 0.20249741
0.12095563 -0.10078476 0.20295982
0.12337673 -0.10117164 0.20373893
0.12603036 -0.10173414 0.20487168
0.12907293 -0.10258848 0.20659216
0.12758581 -0.099871233 0.20112017
0.13107277 -0.10107053 0.20353532
0.13584118 -0.1032082 0.20784014
0.13905826 -0.10412239 0.20968112
0.13983352 -0.1032082 0.20784014
0.14308599 -0.10412239 0.20968112
0.15562874 -0.11167783 0.22489625
0.15827908 -0.11202488 0.22559513
0.15994874 -0.11167783 0.22489625
0.1626125 -0.11202488 0.22559513
0.16289872 -0.11074645 0.22302063
0.16098626 -0.10802581 0.21754183
0.16323471 -0.1081312 0.21775405
0.16688854 -0.10915309 0.21981195
0.16980302 -0.10967195 0.2208568
0.17111084 -0.10915309 0.21981195
0.17799424 -0.11216024 0.22586772
nan nan nan
nan nan nan
nan nan nan
nan nan nan
nan nan nan
nan nan nan
nan nan nan
nan nan nan
nan nan nan
nan nan nan
nan nan nan
nan nan nan
nan nan nan
nan nan nan
nan nan nan
nan nan nan
nan nan nan
nan nan nan
nan nan nan
nan nan nan
nan nan nan
nan nan nan
nan nan nan
nan nan nan
nan nan nan
nan nan nan
nan nan nan
nan nan nan
-0.11039343 -0.10373978 0.21305248
-0.11268114 -0.10788942 0.22157466
-0.10403861 -0.10153195 0.20851819
-0.10437638 -0.10386086 0.21330112
-0.10378999 -0.105345 0.21634914
-0.10182869 -0.10546577 0.21659717
-0.099812783 -0.10553383 0.21673694
-0.097333319 -0.10510423 0.21585467
-0.098974042 -0.10920189 0.22427012
-0.096372955 -0.10869761 0.22323446
-0.093960434 -0.10838788 0.22259837
-0.08943934 -0.10557478 0.21682104
-0.086254112 -0.10424201 0.21408391
-0.084283173 -0.10434749 0.21430054
-0.082257703 -0.10438906 0.21438593
-0.077842325 -0.101322 0.20808701
-0.074972935 -0.10015861 0.20569775
-0.072682612 -0.099726789 0.2048109
-0.07053943 -0.099478446 0.20430088
-0.06799718 -0.098637007 0.20257279
-0.065754727 -0.09819369 0.20166235
-0.063615896 -0.097882904 0.20102407
-0.061578114 -0.097713009 0.20067516
-0.059692949 -0.097782128 0.20081712
-0.059172835 -0.1001666 0.20571415
-0.057683151 -0.10101786 0.20746239
-0.056290563 -0.10210613 0.20969741
-0.053918589 -0.10143273 0.20831443
-0.051297609 -0.10022094 0.20582576
-0.048669551 -0.098897643 0.20310807
-0.045537785 -0.096397541 0.19797356
-0.043308917 -0.095674172 0.19648796
-0.041004378 -0.094710104 0.19450803
-0.038780861 -0.093850046 0.19274174
-0.036864866 -0.093685307 0.19240339
-0.034967892 -0.093554072 0.19213387
-0.031601761 -0.089258589 0.18331215
-0.029779805 -0.089075074 0.18293527
-0.028080555 -0.089258589 0.18331215
-0.026390722 -0.089498587 0.18380505
-0.024736905 -0.089903891 0.18463743
-0.022948502 -0.08984489 0.18451625
-0.021274038 -0.09025941 0.18536755
-0.019523313 -0.090396546 0.1856492
-0.017796313 -0.090682149 0.18623574
-0.016058924 -0.090972714 0.18683249
-0.014202877 -0.090579644 0.18602523
-0.012379931 -0.090314932 0.18548158
-0.010614732 -0.090453304 0.18576577
-0.00887815 -0.090940736 0.18676682
-0.0071276235 -0.091496006 0.18790719
-0.0053561982 -0.092068568 0.18908307
-0.0035508613 -0.092346631 0.18965413
-0.0017378447 -0.092800349 0.19058594
9.2165188e-05 -0.092346631 0.18965413
0.0019230808 -0.092800349 0.19058594
0.0037691342 -0.093185805 0.19137757
0.0056274403 -0.093522184 0.19206838
0.0074848221 -0.093680888 0.19239433
0.0093539851 -0.093895026 0.19283409
0.011169475 -0.093588643 0.19220488
0.012972274 -0.093277916 0.19156674
0.014775245 -0.093045473 0.19108936
0.016717844 -0.093646534 0.19232376
0.01867713 -0.094212167 0.19348541
0.020567449 -0.09435901 0.19378699
0.022424569 -0.094341822 0.19375168
0.024245379 -0.094186202 0.19343209
0.026069764 -0.094065644 0.19318449
0.027932299 -0.094089612 0.19323371
0.029754015 -0.093981646 0.193012
0.032918703 -0.097879514 0.20101713
0.034903958 -0.098032892 0.20133212
0.036696982 -0.097658597 0.20056342
0.038536429 -0.097439006 0.20011245
0.040351033 -0.097180471 0.19958147
0.042223386 -0.09707813 0.19937131
0.044102859 -0.097000338 0.19921154
0.045775548 -0.09649314 0.19816989
0.047531776 -0.096195482 0.1975586
0.04942375 -0.096184857 0.19753678
0.051432151 -0.096393228 0.19796471
0.053429946 -0.096567579 0.19832277
0.054023903 -0.094280005 0.19362475
0.055886403 -0.094284825 0.19363463
0.057743203 -0.094280005 0.19362475
0.059485011 -0.094093613 0.19324194
0.061331864 -0.094079621 0.19321321
0.063272119 -0.094205521 0.19347176
0.065117233 -0.094186626 0.19343296
0.066882558 -0.094056576 0.19316587
0.068397515 -0.093590945 0.1922096
0.073329233 -0.097702205 0.20065299
0.075501963 -0.098021038 0.20130776
0.077183537 -0.097702205 0.20065299
0.079267055 -0.097895332 0.2010496
0.08129137 -0.09800788 0.20128074
0.083209887 -0.09799061 0.20124528
0.085112102 -0.097955368 0.2011729
0.084863104 -0.095500812 0.19613193
0.086763307 -0.095518962 0.1961692
0.088630557 -0.095500812 0.19613193
0.090647563 -0.095641434 0.19642073
0.092617437 -0.095727608 0.1965977
0.094165474 -0.095383048 0.19589007
0.10055155 -0.09985657 0.20507745
0.10260349 -0.099936731 0.20524207
0.10449084 -0.09985657 0.20507745
0.10567898 -0.099123538 0.20357201
0.10703589 -0.098572575 0.20244047
0.10871373 -0.098331548 0.20194547
0.10807984 -0.096044667 0.19724885
0.10980738 -0.095898889 0.19694947
0.11218902 -0.096319623 0.19781354
0.11435443 -0.096543804 0.19827394
0.1168149 -0.097005658 0.19922246
0.11816303 -0.096543804 0.19827394
0.12690231 -0.10203967 0.20956092
0.12868549 -0.10185798 0.20918779
0.13097958 -0.10208009 0.20964393
0.13270372 -0.10185798 0.20918779
0.13500659 -0.10208009 0.20964393
0.13798301 -0.10279746 0.21111721
0.14236359 -0.10452501 0.21466511
0.14203832 -0.10279746 0.21111721
0.14648706 -0.10452501 0.21466511
0.15116706 -0.10636734 0.21844874
0.15327318 -0.10637293 0.21846022
0.16424222 -0.11244625 0.23093311
0.16739193 -0.11307564 0.23222572
0.16613154 -0.1107486 0.2274466
0.16737175 -0.11012726 0.22617057
0.17050053 -0.1107486 0.2274466
0.16940227 -0.10864326 0.22312285
0.17191093 -0.10887486 0.2235985
0.17368819 -0.10864326 0.22312285
0.17620598 -0.10887486 0.2235985
nan nan nan
nan nan nan
nan nan nan
nan nan nan
nan nan nan
nan nan nan
nan nan nan
nan nan nan
nan nan nan
nan nan nan
nan nan nan
nan nan nan
nan nan nan
nan nan nan
nan nan nan
nan nan nan
nan nan nan
nan nan nan
nan nan nan
nan nan nan
nan nan nan
nan nan nan
nan nan nan
nan nan nan
nan nan nan
nan nan nan
nan nan nan
-0.10800406 -0.09767177 0.20464779
-0.10905407 -0.10044938 0.21046759
-0.10407303 -0.09767177 0.20464779
-0.10501125 -0.10044938 0.21046759
-0.10613277 -0.10351478 0.21689042
-0.10745545 -0.10690306 0.22398975
-0.10471176 -0.10630167 0.22272967
-0.10565306 -0.10949413 0.22941872
-0.10237141 -0.10835291 0.22702758
-0.10124621 -0.10949413 0.22941872
-0.098451592 -0.10884057 0.22804934
-0.096146017 -0.1087102 0.22777617
-0.091144361 -0.10545439 0.2209544
-0.087775491 -0.10397752 0.21785998
-0.083472855 -0.10129538 0.2122402
-0.080869943 -0.10059325 0.21076904
-0.079395972 -0.10129538 0.2122402
-0.07682132 -0.10059325 0.21076904
-0.074751422 -0.10053193 0.21064056
-0.072554395 -0.10029148 0.21013676
-0.069569632 -0.098917224 0.20725735
-0.067170806 -0.098319672 0.20600531
-0.066149786 -0.099763781 0.20903109
-0.064312667 -0.10002896 0.20958672
-0.062913164 -0.10101393 0.21165048
-0.06028676 -0.10002896 0.20958672
-0.058847617 -0.10101393 0.21165048
-0.057330944 -0.10193153 0.2135731
-0.054834187 -0.10111003 0.21185185
-0.05229082 -0.10013596 0.20981091
-0.04881575 -0.097228102 0.20371819
-0.046354845 -0.096181706 0.2015257
-0.044104703 -0.095500477 0.20009835
-0.040468913 -0.091620117 0.19196799
-0.038074289 -0.090313382 0.18923005
-0.036070343 -0.089848824 0.18825668
-0.034179959 -0.08963301 0.18780451
-0.032454163 -0.089848824 0.18825668
-0.030572463 -0.08963301 0.18780451
-0.028803764 -0.089742221 0.18803331
-0.027048079 -0.0899093 0.18838339
-0.025353702 -0.090318717 0.18924123
-0.023527699 -0.090286262 0.18917324
-0.021771155 -0.090537243 0.1896991
-0.019940907 -0.090499565 0.18962015
-0.018131291 -0.090557352 0.18974124
-0.016318895 -0.09061262 0.18985704
-0.014449581 -0.090325996 0.18925649
-0.01260726 -0.090149894 0.18888751
-0.010810087 -0.090291716 0.18918465
-0.0090415087 -0.090777904 0.19020334
-0.0072572725 -0.09131331 0.19132516
-0.0054572998 -0.091946632 0.19265214
-0.0036195966 -0.092267923 0.19332533
-0.0017695883 -0.092621997 0.1940672
9.394926e-05 -0.092267923 0.19332533
0.0019582077 -0.092621997 0.1940672
0.003838826 -0.093027182 0.19491616
0.0057334965 -0.093395621 0.19568814
0.0076244562 -0.093536615 0.19598357
0.0095271152 -0.093736894 0.19640321
0.011382018 -0.093478762 0.19586235
0.013226974 -0.093223736 0.195328
0.015087865 -0.093130432 0.19513249
0.016987495 -0.093270443 0.19542585
0.019042792 -0.094152242 0.19727346
0.020949773 -0.094207503 0.19738926
0.022841487 -0.094190642 0.19735391
0.024695678 -0.09403348 0.19702461
0.026601421 -0.094081007 0.19712421
0.028554359 -0.094278052 0.19753708
0.030506609 -0.09444841 0.19789402
0.032303359 -0.094145603 0.19725955
0.034307912 -0.09444841 0.19789402
0.036092475 -0.094145603 0.19725955
0.03791042 -0.093955733 0.19686171
0.039712701 -0.093746908 0.19642419
0.042993471 -0.096888922 0.20300752
0.044946689 -0.096896373 0.20302312
0.046920788 -0.096946329 0.20312782
0.048676062 -0.096558236 0.20231465
0.05066058 -0.096637219 0.20248014
0.052771091 -0.096941821 0.20311835
0.054790251 -0.097062871 0.20337199
0.056592584 -0.096804701 0.20283104
0.05869678 -0.097062871 0.20337199
0.060488723 -0.096804701 0.20283104
0.060695048 -0.094104223 0.19717285
0.062470328 -0.093926132 0.1967997
0.064523146 -0.09416353 0.19729711
0.066549718 -0.094350182 0.19768819
0.068354882 -0.094221286 0.19741812
0.069926582 -0.093786232 0.19650657
0.071580641 -0.093481593 0.19586827
0.07370124 -0.093786232 0.19650657
0.079272665 -0.098357253 0.20608406
0.081471421 -0.098622896 0.20664065
0.083512172 -0.098689184 0.20677954
0.085340604 -0.098507315 0.20639847
0.087230682 -0.098403245 0.20618042
0.089177385 -0.098366253 0.20610292
0.091191158 -0.098403245 0.20618042
0.090905629 -0.096010253 0.20116648
0.092697278 -0.095865019 0.20086217
0.094610736 -0.095849112 0.20082885
0.096364491 -0.095675275 0.20046462
0.098113492 -0.095503628 0.20010497
0.10021517 -0.095675275 0.20046462
0.10195727 -0.095503628 0.20010497
0.10910862 -0.10031145 0.21017861
0.10989507 -0.099199191 0.20784813
0.11164905 -0.098984405 0.2073981
0.11388758 -0.099199191 0.20784813
0.11563293 -0.098984405 0.2073981
0.1147265 -0.096545354 0.20228766
0.11705701 -0.096866153 0.20295982
0.11946315 -0.097238004 0.20373893
0.12095563 -0.096866153 0.20295982
0.12337673 -0.097238004 0.20373893
0.12603036 -0.097778626 0.20487168
0.13336127 -0.10187565 0.213456
0.13527566 -0.10177353 0.21324205
0.1374615 -0.10187565 0.213456
0.13937178 -0.10177353 0.21324205
0.1471488 -0.10589641 0.22188056
0.15279721 -0.10839158 0.22710858
0.1489898 -0.10420313 0.21833269
0.15366121 -0.10597871 0.22205299
0.15827908 -0.10766926 0.22559513
0.15994874 -0.10733571 0.22489625
0.1626125 -0.10766926 0.22559513
0.17016929 -0.11119122 0.23297456
0.17093877 -0.1102444 0.23099074
0.17464444 -0.11119122 0.23297456
0.17537583 -0.1102444 0.23099074
0.17608456 -0.10930717 0.22902699
0.17556009 -0.10763699 0.22552751
0.17799424 -0.10779935 0.22586772
nan nan nan
nan nan nan
nan nan nan
nan nan nan
nan nan nan
nan nan nan
nan nan nan
nan nan nan
nan nan nan
nan nan nan
nan nan nan
nan nan nan
nan nan nan
nan nan nan
nan nan nan
nan nan nan
nan nan nan
nan nan nan
nan nan nan
nan nan nan
nan nan nan
nan nan nan
nan nan nan
nan nan nan
nan nan nan
nan nan nan
nan nan nan
nan nan nan
-0.11039343 -0.099626333 0.21305248
nan nan nan
-0.10630096 -0.099626333 0.21305248
-0.10842495 -0.10361142 0.22157466
-0.11066091 -0.10786523 0.2306715
-0.1073745 -0.1068 0.22839351
-0.10639875 -0.10803659 0.23103796
-0.10298734 -0.1068 0.22839351
-0.1019608 -0.10803659 0.23103796
-0.099163711 -0.1074104 0.22969885
-0.095749132 -0.10607166 0.22683592
-0.08943934 -0.10138856 0.21682104
-0.086254112 -0.10010864 0.21408391
-0.084283173 -0.10020994 0.21430054
-0.082141824 -0.10010864 0.21408391
-0.08016672 -0.10020994 0.21430054
-0.078139611 -0.10024986 0.21438593
-0.076859243 -0.10127593 0.21658017
-0.077066384 -0.10437365 0.22320469
-0.073811546 -0.10282579 0.21989457
-0.07074935 -0.10146303 0.21698029
-0.067412533 -0.099611759 0.21302132
-0.065357238 -0.099597506 0.21299085
-0.063320652 -0.099611759 0.21302132
-0.061265945 -0.099597506 0.21299085
-0.059722755 -0.10044255 0.21479799
-0.057810348 -0.10070489 0.215359
-0.055255778 -0.099826552 0.21348067
-0.051297609 -0.09624701 0.20582576
-0.04797833 -0.093627311 0.20022348
-0.045537785 -0.092575215 0.19797356
-0.043308917 -0.09188053 0.19648796
-0.041004378 -0.090954684 0.19450803
-0.038780861 -0.090128742 0.19274174
-0.036864866 -0.089970522 0.19240339
-0.034967892 -0.089844495 0.19213387
-0.033169027 -0.089970522 0.19240339
-0.031277232 -0.089844495 0.19213387
-0.02950296 -0.090061396 0.19259773
-0.027724475 -0.090293601 0.1930943
-0.025955208 -0.090591289 0.19373091
-0.024074003 -0.090514064 0.19356577
-0.022209378 -0.090491496 0.19351749
-0.020291965 -0.090230055 0.1929584
-0.018672334 -0.091373257 0.19540316
-0.016826995 -0.091544032 0.19576837
-0.01495822 -0.091614231 0.19591849
-0.01307099 -0.091575347 0.19583534
-0.011216399 -0.09179049 0.19629541
-0.0093744043 -0.092216469 0.19720638
-0.0075164288 -0.092661157 0.19815736
-0.0056419466 -0.093134925 0.1991705
-0.0037352194 -0.09328939 0.19950083
-0.0018199513 -0.093331277 0.19959041
9.6950338e-05 -0.09328939 0.19950083
0.0020139392 -0.093331277 0.19959041
0.0039467169 -0.093707196 0.20039432
0.0059070364 -0.094276212 0.20161118
0.0078802416 -0.094719172 0.20255844
0.0098578837 -0.095029496 0.20322207
0.011817758 -0.095094256 0.20336057
0.01376977 -0.095086358 0.20334369
0.015732076 -0.095142677 0.20346412
0.01735458 -0.093358599 0.19964884
0.019418333 -0.094067045 0.20116386
0.021362927 -0.094122291 0.20128201
0.023313472 -0.094192401 0.20143193
0.025198797 -0.094008446 0.20103855
0.027111353 -0.093945049 0.20090297
0.029057408 -0.093998432 0.20101713
0.031036614 -0.094145723 0.20133212
0.032844402 -0.093786269 0.20056342
0.034903958 -0.094145723 0.20133212
0.036696982 -0.093786269 0.20056342
0.038536429 -0.093575388 0.20011245
0.040351033 -0.093327098 0.19958147
0.042223386 -0.093228817 0.19937131
0.044102859 -0.09315411 0.19921154
0.045998119 -0.093117587 0.19913343
0.049869485 -0.096924663 0.20727493
0.051912982 -0.097023241 0.20748574
0.053963941 -0.097127967 0.20770968
0.055926517 -0.097071819 0.20758961
0.05766388 -0.096642084 0.20667063
0.059338115 -0.096138671 0.20559408
0.061633777 -0.096642084 0.20667063
0.063287333 -0.096138671 0.20559408
0.06526731 -0.096146591 0.20561101
0.067426875 -0.096410811 0.20617606
0.068189427 -0.094719432 0.20255901
0.069992058 -0.094526544 0.20214652
0.071635082 -0.094134331 0.20130776
0.073329233 -0.093828149 0.20065299
0.075405136 -0.094013609 0.2010496
0.077183537 -0.093828149 0.20065299
0.079267055 -0.094013609 0.2010496
0.081298463 -0.094129913 0.20129831
0.08745952 -0.098911181 0.21152313
0.089322053 -0.098724365 0.21112363
0.091390796 -0.098768719 0.21121846
0.093189947 -0.098526098 0.21069962
0.095448047 -0.098768719 0.21121846
0.097237229 -0.098526098 0.21069962
0.096830837 -0.096114047 0.20554142
0.098661043 -0.095974073 0.20524207
0.10055155 -0.095897093 0.20507745
0.10245199 -0.095832355 0.20493901
0.10449084 -0.095897093 0.20507745
0.10638861 -0.095832355 0.20493901
0.10703589 -0.094664007 0.20244047
0.11487172 -0.09978158 0.21338449
0.11711447 -0.099946566 0.21373731
0.11897058 -0.09978158 0.21338449
0.12122011 -0.099946566 0.21373731
0.12389329 -0.10044954 0.21481293
0.12602864 -0.10050712 0.21493606
0.12477161 -0.097901039 0.20936292
0.12690231 -0.097993627 0.20956092
0.12879322 -0.097901039 0.20936292
0.13097958 -0.098032445 0.20964393
0.13328871 -0.098250344 0.21010993
0.14057744 -0.1020776 0.21829456
0.14247064 -0.10193209 0.21798339
0.14941312 -0.10535102 0.22529484
0.15542257 -0.10802387 0.23101076
0.15374076 -0.10535102 0.22529484
0.15986001 -0.10802387 0.23101076
0.16293114 -0.108592 0.23222572
0.16353343 -0.10752155 0.22993654
0.16739193 -0.108592 0.23222572
0.16795024 -0.10752155 0.22993654
0.16737175 -0.10576053 0.22617057
0.17938624 -0.11190008 0.23930009
0.17995581 -0.11083533 0.2370231
0.18031764 -0.10967083 0.23453282
0.18329778 -0.1101079 0.23546749
0.18482275 -0.10967083 0.23453282
nan nan nan
nan nan nan
nan nan nan
nan nan nan
nan nan nan
nan nan nan
nan nan nan
nan nan nan
nan nan nan
nan nan nan
nan nan nan
nan nan nan
nan nan nan
nan nan nan
nan nan nan
nan nan nan
nan nan nan
nan nan nan
nan nan nan
nan nan nan
nan nan nan
nan nan nan
nan nan nan
nan nan nan
nan nan nan
nan nan nan
nan nan nan
nan nan nan
nan nan nan
nan nan nan
nan nan nan
nan nan nan
-0.10981698 -0.10483278 0.22891232
-0.10713508 -0.10436195 0.22788423
-0.10541984 -0.10483278 0.22891232
-0.10275769 -0.10436195 0.22788423
-0.10124621 -0.10506469 0.22941872
-0.098451592 -0.10443757 0.22804934
-0.09454076 -0.10257086 0.22397321
-0.091144361 -0.10118836 0.2209544
-0.087775491 -0.099771246 0.21785998
-0.086230502 -0.10040868 0.21925189
-0.083590664 -0.099771246 0.21785998
-0.082018942 -0.10040868 0.21925189
-0.081667624 -0.10261311 0.22406547
-0.080871642 -0.10436304 0.2278866
-0.078372002 -0.10395064 0.22698608
-0.07537429 -0.1028351 0.22455022
-0.072481386 -0.10180105 0.22229226
-0.069298744 -0.10028494 0.21898168
-0.066971876 -0.099951103 0.21825273
-0.06509237 -0.10028494 0.21898168
-0.062779501 -0.099951103 0.21825273
-0.058847617 -0.096927531 0.21165048
-0.057330944 -0.097808018 0.2135731
-0.054834187 -0.097019754 0.21185185
-0.051547643 -0.094719492 0.206829
-0.04881575 -0.093294866 0.20371819
-0.046354845 -0.092290796 0.2015257
-0.044104703 -0.09163712 0.20009835
-0.041788306 -0.09077996 0.19822665
-0.039621804 -0.09018214 0.19692126
-0.037636537 -0.089957565 0.19643088
-0.035839185 -0.09018214 0.19692126
-0.033863336 -0.089957565 0.19643088
-0.031867083 -0.089649081 0.19575727
-0.030820532 -0.092141144 0.20119894
-0.02900961 -0.092528597 0.20204498
-0.02711837 -0.092697039 0.20241278
-0.025169117 -0.092677899 0.20237099
-0.023095829 -0.092160597 0.20124142
-0.020986969 -0.091393895 0.19956726
-0.018973814 -0.090931751 0.19855811
-0.017095549 -0.091085024 0.19889279
-0.015212908 -0.091250591 0.19925433
-0.013319246 -0.091388196 0.1995548
-0.011438725 -0.091677383 0.20018627
-0.0095632263 -0.092131808 0.20117855
-0.0076620188 -0.092505969 0.20199557
-0.0057391822 -0.092784189 0.20260307
-0.0037932214 -0.092782214 0.20259877
-0.0018478465 -0.092805497 0.20264962
9.8455828e-05 -0.092782214 0.20259877
0.0020448077 -0.092805497 0.20264962
0.0040062489 -0.093156941 0.20341703
0.0059941965 -0.093692295 0.20458603
0.0079909973 -0.094067521 0.20540537
0.009986789 -0.094284646 0.20587948
0.011990506 -0.094492443 0.20633322
0.013984643 -0.094576515 0.2065168
0.015998995 -0.094759442 0.20691623
0.018028039 -0.094979338 0.20739639
0.020066962 -0.095202334 0.20788333
0.022078831 -0.095268242 0.20802726
0.02406464 -0.095220111 0.20792215
0.025987141 -0.094948031 0.20732805
0.027920047 -0.094750002 0.20689562
0.029449955 -0.093301527 0.20373274
0.031451162 -0.093433663 0.20402126
0.033325218 -0.093194708 0.2034995
0.035249747 -0.093115561 0.20332667
0.037234198 -0.093194708 0.2034995
0.039155405 -0.093115561 0.20332667
0.041043524 -0.092968985 0.2030066
0.042993471 -0.092969403 0.20300752
0.044946689 -0.092976555 0.20302312
0.046920788 -0.093024492 0.20312782
0.04870072 -0.092699029 0.20241712
0.05066058 -0.092727885 0.20248014
0.052771091 -0.093020163 0.20311835
0.056878507 -0.096686073 0.21112323
0.058651924 -0.096268691 0.21021183
0.060516503 -0.096023738 0.20967695
