# .PCD v0.7 - Point Cloud Data file format
VERSION 0.7
FIELDS x y z
SIZE 4 4 4
TYPE F F F
COUNT 1 1 1
WIDTH 1565
HEIGHT 1
VIEWPOINT 0 0 0 1 0 0 0
POINTS 1565
DATA ascii
-0.061578896 -0.14841835 0.33835015
-0.058067463 -0.14775226 0.33683163
-0.054479469 -0.14680122 0.33466357
-0.050996248 -0.14603099 0.33290765
-0.047755469 -0.14589839 0.33260536
-0.044401117 -0.14537494 0.33141205
-0.041158259 -0.14516385 0.33093083
-0.037882943 -0.14479339 0.33008632
-0.034322631 -0.1431665 0.32637745
-0.030989122 -0.14225368 0.3242965
-0.027646059 -0.14108811 0.32163936
-0.024449389 -0.1404704 0.32023114
-0.021365397 -0.1404154 0.32010576
-0.01829868 -0.14047454 0.32024062
-0.015211016 -0.14036432 0.31998932
-0.012097773 -0.13990246 0.31893641
-0.0089925295 -0.13925128 0.31745189
-0.0059151351 -0.13858445 0.31593174
-0.0028739066 -0.13825276 0.31517559
0.00015353164 -0.13858445 0.31593174
0.0031802354 -0.13825276 0.31517559
0.0061883018 -0.13782948 0.31421065
0.0091905482 -0.13759656 0.31367967
0.012178575 -0.13731834 0.31304538
0.015141388 -0.13692227 0.31214246
0.018101502 -0.13663675 0.31149155
0.021081679 -0.13656218 0.31132156
0.023999006 -0.13614959 0.31038097
0.027012924 -0.13631558 0.3107594
0.030086048 -0.1367176 0.31167588
0.032776024 -0.13546331 0.30881646
0.035229109 -0.13351938 0.30438486
0.037321918 -0.13061249 0.29775804
0.039329145 -0.12784122 0.29144034
0.04167977 -0.12648027 0.28833777
0.044552274 -0.12677391 0.28900719
0.047929145 -0.12838411 0.29267797
0.051698443 -0.13080885 0.29820564
0.055489458 -0.13303107 0.30327168
0.057426613 -0.13080885 0.29820564
0.061314944 -0.13303107 0.30327168
0.06484396 -0.13430753 0.30618161
0.067718737 -0.13417694 0.30588391
0.070738606 -0.13433273 0.30623907
0.073699519 -0.13436858 0.30632082
0.07672634 -0.13451725 0.30665973
0.079732753 -0.13462046 0.30689502
0.082873635 -0.13493526 0.30761266
0.085941918 -0.13511425 0.30802071
0.088915437 -0.1351373 0.30807325
0.091930844 -0.13522048 0.30826288
0.094833143 -0.1351373 0.30807325
0.0978522 -0.13522048 0.30826288
0.10253996 -0.13753702 0.31354392
0.10587432 -0.13795786 0.31450328
0.10929973 -0.13847069 0.3156724
0.1123694 -0.13851731 0.31577867
0.11549905 -0.13863349 0.31604353
0.11864983 -0.13876842 0.31635115
0.12177336 -0.13886555 0.31657255
0.12472656 -0.13876842 0.31635115
0.12658238 -0.13748406 0.31342316
0.12966186 -0.13755751 0.31359062
0.13257518 -0.13745534 0.31335771
0.13598274 -0.13785878 0.31427741
0.13898925 -0.13784695 0.31425047
0.14196445 -0.13780522 0.31415534
0.14502563 -0.13784695 0.31425047
0.15025526 -0.13990608 0.31894466
0.1536656 -0.1402228 0.31966668
0.1575873 -0.14098458 0.32140332
0.16082197 -0.14111426 0.32169896
0.16385585 -0.14106618 0.32158935
0.16700143 -0.14111426 0.32169896
0.1700332 -0.14106618 0.32158935
0.1714049 -0.13966714 0.31839994
0.17523819 -0.14028776 0.31981477
0.18002097 -0.14163402 0.32288387
0.18138145 -0.14028776 0.31981477
0.18622318 -0.14163402 0.32288387
0.19300233 -0.14438559 0.32915664
0.20132592 -0.14818524 0.33781871
0.20560412 -0.14893398 0.33952564
0.20781502 -0.14818524 0.33781871
0.212126 -0.14893398 0.33952564
0.21675789 -0.14988197 0.34168676
0.21992226 -0.14980204 0.34150454
0.21976075 -0.14749232 0.33623904
0.22288479 -0.14742266 0.33608022
0.2268668 -0.14791435 0.33720118
0.23159678 -0.14887302 0.33938664
0.23334405 -0.14791435 0.33720118
0.24540067 -0.15342748 0.3497695
0.25283429 -0.15594038 0.35549816
0.25855997 -0.15734696 0.35870475
0.25966299 -0.15594038 0.35549816
0.26545027 -0.15734696 0.35870475
0.27704114 -0.16211352 0.36957109
0.27089253 -0.15651035 0.35679752
0.27904204 -0.15920484 0.36294013
0.28979489 -0.16329981 0.3722755
0.29884514 -0.16634727 0.37922281
nan nan nan
nan nan nan
nan nan nan
nan nan nan
nan nan nan
nan nan nan
nan nan nan
nan nan nan
nan nan nan
nan nan nan
nan nan nan
nan nan nan
nan nan nan
nan nan nan
nan nan nan
nan nan nan
nan nan nan
nan nan nan
nan nan nan
nan nan nan
nan nan nan
nan nan nan
nan nan nan
nan nan nan
nan nan nan
nan nan nan
-0.20343839 -0.16241428 0.3785885
nan nan nan
-0.19616616 -0.16241428 0.3785885
-0.19243421 -0.16233343 0.37840006
-0.18508513 -0.15913941 0.37095475
-0.18213886 -0.1596799 0.37221467
-0.18111935 -0.16196507 0.37754136
-0.17498907 -0.1596799 0.37221467
-0.17386724 -0.16196507 0.37754136
-0.17135914 -0.16302867 0.38002065
-0.16766149 -0.16298221 0.37991235
-0.16742845 -0.16637655 0.38782457
-0.16224898 -0.16489816 0.38437843
-0.1572824 -0.16357231 0.38128787
-0.15486555 -0.16489816 0.38437843
-0.14995833 -0.16357231 0.38128787
-0.14601652 -0.16325951 0.38055873
-0.14093731 -0.16162628 0.37675166
-0.13524896 -0.15919 0.37107268
-0.12382495 -0.14968818 0.34892389
-0.12046829 -0.1496814 0.3489081
-0.11719346 -0.14977881 0.34913516
-0.11379574 -0.14972028 0.34899873
-0.11048699 -0.14977881 0.34913516
-0.1070919 -0.14972028 0.34899873
-0.10401642 -0.15011926 0.34992874
-0.10056049 -0.14997746 0.34959823
-0.097030953 -0.14971229 0.3489801
-0.093591489 -0.1495721 0.34865332
-0.091866769 -0.15226361 0.35492721
-0.087848075 -0.15121388 0.35248032
-0.084096216 -0.15055774 0.35095084
-0.080205798 -0.14958839 0.34869128
-0.076802127 -0.14948191 0.34844309
-0.072975419 -0.14850487 0.34616557
-0.069365636 -0.14789703 0.34474874
-0.066325992 -0.14850487 0.34616557
-0.062743425 -0.14789703 0.34474874
-0.059252352 -0.1474492 0.34370479
-0.055719506 -0.1468384 0.34228104
-0.052176557 -0.14612274 0.34061283
-0.048682112 -0.14545624 0.33905923
-0.045128416 -0.14450446 0.33684063
-0.041697476 -0.14382912 0.33526641
-0.038315073 -0.14322218 0.33385161
-0.033969548 -0.1385754 0.32301995
-0.030705282 -0.13784876 0.32132617
-0.027444635 -0.13697781 0.31929594
-0.024294211 -0.13650705 0.31819862
-0.021198755 -0.13625413 0.31760907
-0.018119991 -0.13604151 0.31711343
-0.015046661 -0.135792 0.31653184
-0.011957163 -0.13523328 0.31522948
-0.0088887084 -0.13461439 0.3137868
-0.0058533209 -0.13411821 0.31263021
-0.0028463867 -0.13391544 0.31215754
0.0001519272 -0.13411821 0.31263021
0.0031497821 -0.13391544 0.31215754
0.0061374055 -0.13368757 0.3116264
0.0091337981 -0.13373749 0.31174275
0.012107621 -0.13351388 0.31122154
0.015055245 -0.13314712 0.3103666
0.017992312 -0.13282366 0.30961263
0.020951234 -0.13273041 0.30939525
0.023833042 -0.13223247 0.30823454
0.026768891 -0.13211128 0.30795205
0.03053507 -0.13570434 0.31632751
0.033182286 -0.13412423 0.31264427
0.034083202 -0.1263335 0.29448405
0.035554856 -0.12169009 0.28366023
0.037058357 -0.1178089 0.27461314
0.039128572 -0.11612535 0.27068874
0.042034458 -0.11697714 0.27267429
0.045812842 -0.12001467 0.27975482
0.050203569 -0.12423094 0.28958294
0.054682251 -0.12821077 0.29885995
0.055766109 -0.12423094 0.28958294
0.060422987 -0.12821077 0.29885995
0.064515434 -0.1306863 0.3046304
0.068059526 -0.13188441 0.30742323
0.071241714 -0.13231078 0.30841708
0.074439235 -0.13273045 0.30939534
0.077632844 -0.13311119 0.31028286
0.080432981 -0.13281406 0.30959025
0.083640084 -0.13318616 0.31045762
0.086730637 -0.13335343 0.31084752
0.089711376 -0.13334635 0.31083101
0.092781715 -0.13346863 0.31111604
0.095836416 -0.13356148 0.31133246
0.098757878 -0.13346863 0.31111604
0.10181674 -0.13356148 0.31133246
0.10505164 -0.13387337 0.31205949
0.11021203 -0.13655365 0.31830722
0.11342904 -0.13674636 0.31875646
0.11630817 -0.13653234 0.31825754
0.11944866 -0.13662821 0.31848103
0.12267263 -0.1368124 0.31891039
0.12588201 -0.13697174 0.31928182
0.12879851 -0.1368124 0.31891039
0.13201503 -0.13697174 0.31928182
0.13380867 -0.13568105 0.31627321
0.13686374 -0.13569836 0.31631356
0.13993186 -0.13572757 0.31638163
0.1430096 -0.13576469 0.31646815
0.14611115 -0.13582237 0.31660262
0.14908858 -0.13576469 0.31646815
0.1521927 -0.13582237 0.31660262
0.15861911 -0.13878466 0.32350773
0.16242872 -0.1393875 0.32491297
0.16540536 -0.13926631 0.32463047
0.16866991 -0.1393875 0.32491297
0.17164113 -0.13926631 0.32463047
0.17463385 -0.13916658 0.32439798
0.17849594 -0.139751 0.32576028
0.18163559 -0.13975941 0.32577986
0.18659244 -0.14114209 0.32900292
0.18789342 -0.13975941 0.32577986
0.19291221 -0.14114209 0.32900292
0.1994624 -0.14358261 0.33469176
0.20320462 -0.14395645 0.33556321
0.20847443 -0.14538391 0.33889064
0.21349333 -0.14659521 0.34171417
0.21967959 -0.14855926 0.34629238
0.22340417 -0.14882483 0.34691143
0.22633144 -0.14855926 0.34629238
0.23006792 -0.14882483 0.34691143
0.23056217 -0.14701545 0.34269375
0.23522943 -0.14788042 0.34470999
0.23714492 -0.14701545 0.34269375
0.24185088 -0.14788042 0.34470999
0.24943136 -0.15045592 0.35071349
0.26225904 -0.15608568 0.36383653
0.26341295 -0.15471104 0.36063218
0.26924789 -0.15608568 0.36383653
0.28067541 -0.16062565 0.37441918
0.28916842 -0.16339263 0.38086903
0.28786755 -0.16062565 0.37441918
0.29640505 -0.16334888 0.38076705
0.30566823 -0.16640078 0.38788104
nan nan nan
nan nan nan
nan nan nan
nan nan nan
nan nan nan
nan nan nan
nan nan nan
nan nan nan
nan nan nan
nan nan nan
nan nan nan
nan nan nan
nan nan nan
nan nan nan
nan nan nan
nan nan nan
nan nan nan
nan nan nan
nan nan nan
nan nan nan
nan nan nan
nan nan nan
nan nan nan
nan nan nan
nan nan nan
nan nan nan
nan nan nan
nan nan nan
-0.19390596 -0.15693034 0.37422648
-0.19226861 -0.15854394 0.37807441
-0.1909689 -0.16050348 0.38274723
-0.18851255 -0.16154873 0.38523981
-0.18776096 -0.16412598 0.3913857
-0.18111256 -0.16154873 0.38523981
-0.18024291 -0.16412598 0.3913857
-0.18101278 -0.16833775 0.40142936
-0.17635757 -0.16757785 0.39961725
-0.17192146 -0.16699694 0.39823198
-0.16688143 -0.16578963 0.39535296
-0.16427189 -0.16699694 0.39823198
-0.15928717 -0.16578963 0.39535296
-0.15388879 -0.16408232 0.3912816
-0.14991704 -0.16384871 0.39072454
-0.13550572 -0.1519005 0.362232
-0.13052192 -0.15016921 0.35810345
-0.12717709 -0.15028091 0.35836983
-0.1235911 -0.15010595 0.35795259
-0.12070227 -0.15079191 0.35958838
-0.11671527 -0.15010595 0.35795259
-0.113795 -0.15079191 0.35958838
-0.11040667 -0.15088113 0.35980114
-0.10697843 -0.15091984 0.35989344
-0.10687791 -0.15581244 0.37156069
-0.10283364 -0.15509507 0.36984998
-0.097973444 -0.15305172 0.36497727
-0.094285257 -0.15275554 0.36427101
-0.090044789 -0.15150732 0.36129439
-0.086316049 -0.15105455 0.36021468
-0.082457222 -0.15032679 0.35847923
-0.078942426 -0.15019016 0.3581534
-0.074912794 -0.14901695 0.35535571
-0.072062731 -0.15019016 0.3581534
-0.06808684 -0.14901695 0.35535571
-0.064448588 -0.14849788 0.35411787
-0.060884729 -0.14810194 0.3531737
-0.057212256 -0.14737949 0.35145089
-0.050996248 -0.13960345 0.33290765
-0.047755469 -0.13947669 0.33260536
-0.044401117 -0.13897628 0.33141205
-0.041158259 -0.13877448 0.33093083
-0.037709955 -0.13778825 0.32857901
-0.034322631 -0.13686505 0.32637745
-0.030989122 -0.13599241 0.3242965
-0.027646059 -0.13487814 0.32163936
-0.024449389 -0.13428761 0.32023114
-0.021365397 -0.13423504 0.32010576
-0.01829868 -0.13429159 0.32024062
-0.015211016 -0.13418621 0.31998932
-0.012097773 -0.13374467 0.31893641
-0.0089925295 -0.13312215 0.31745189
-0.0059151351 -0.13248467 0.31593174
-0.0028739066 -0.13216759 0.31517559
0.00015353164 -0.13248467 0.31593174
0.0031802354 -0.13216759 0.31517559
0.0061883018 -0.13176295 0.31421065
0.0091905482 -0.13154027 0.31367967
0.012178575 -0.13127428 0.31304538
0.015141388 -0.13089566 0.31214246
0.018101502 -0.1306227 0.31149155
0.021081679 -0.13055141 0.31132156
0.023999006 -0.13015698 0.31038097
0.027012924 -0.13031568 0.3107594
0.030086048 -0.13069999 0.31167588
0.033045512 -0.13056569 0.31135559
0.035229109 -0.12764253 0.30438486
0.037321918 -0.12486362 0.29775804
0.039329145 -0.12221431 0.29144034
0.04167977 -0.12091326 0.28833777
0.039107028 -0.10638145 0.25368428
0.043295428 -0.11086763 0.2643823
0.048372556 -0.11700644 0.27902132
0.053510655 -0.12264052 0.29245672
0.057995442 -0.12628998 0.30115947
0.059128392 -0.12264052 0.29245672
0.063780352 -0.12628998 0.30115947
0.067513354 -0.12788214 0.3049562
0.070754223 -0.12844846 0.30630669
0.074041724 -0.12905084 0.30774316
0.07739266 -0.12971328 0.30932289
0.080813393 -0.13043942 0.31105447
0.084592953 -0.13167231 0.3139945
0.087280087 -0.13117844 0.3128168
0.090250984 -0.13112973 0.31270066
0.093360595 -0.13127923 0.31305715
0.096517161 -0.13148335 0.31354392
0.099374048 -0.13127923 0.31305715
0.10253996 -0.13148335 0.31354392
0.10587432 -0.13188566 0.31450328
0.10929973 -0.13237593 0.3156724
0.11244038 -0.13250414 0.31597814
0.11549905 -0.13253155 0.31604353
0.12027996 -0.13448317 0.32069749
0.12349101 -0.13462593 0.32103792
0.12671976 -0.13478054 0.32140663
0.12965778 -0.13462593 0.32103792
0.13289361 -0.13478054 0.32140663
0.13602912 -0.13482872 0.32152152
0.13910705 -0.13481894 0.32149819
0.14093468 -0.13362415 0.31864899
0.14412872 -0.13374813 0.31894466
0.14752519 -0.13405091 0.31966668
0.15025526 -0.13374813 0.31894466
0.1536656 -0.13405091 0.31966668
0.15704776 -0.13431773 0.32030293
0.16082197 -0.13490313 0.32169896
0.16694842 -0.13740242 0.32765892
0.16994131 -0.13727796 0.32736212
0.17324235 -0.13740242 0.32765892
0.17622954 -0.13727796 0.32736212
0.17993762 -0.13770957 0.32839137
0.18427439 -0.13859916 0.33051276
0.18890502 -0.13967592 0.33308044
0.18960869 -0.13786159 0.32875389
0.19459029 -0.13916615 0.33186483
0.20132592 -0.14166288 0.33781871
0.20560412 -0.14237869 0.33952564
0.20958132 -0.14286692 0.34068996
0.212126 -0.14237869 0.33952564
0.21951233 -0.14510572 0.34602872
0.22596744 -0.14714502 0.35089177
0.22977427 -0.14742523 0.35155997
0.23270765 -0.14714502 0.35089177
0.23652731 -0.14742523 0.35155997
0.24264544 -0.14911 0.35557759
0.2435458 -0.14758608 0.35194355
0.24540067 -0.14667439 0.3497695
0.25030619 -0.14758608 0.35194355
0.25855997 -0.15042137 0.35870475
0.25966299 -0.14907669 0.35549816
0.26545027 -0.15042137 0.35870475
0.28340909 -0.1585404 0.37806591
0.29165259 -0.16108796 0.384141
0.29067129 -0.1585404 0.37806591
0.29903147 -0.16108796 0.384141
0.30921948 -0.16454606 0.39238742
nan nan nan
nan nan nan
nan nan nan
nan nan nan
nan nan nan
nan nan nan
nan nan nan
nan nan nan
nan nan nan
nan nan nan
nan nan nan
nan nan nan
nan nan nan
nan nan nan
nan nan nan
nan nan nan
nan nan nan
nan nan nan
nan nan nan
nan nan nan
nan nan nan
nan nan nan
nan nan nan
nan nan nan
nan nan nan
nan nan nan
nan nan nan
nan nan nan
-0.19616616 -0.15510477 0.3785885
-0.19705024 -0.15874632 0.38747698
-0.19584908 -0.16081579 0.39252827
-0.19309381 -0.16166537 0.39460194
-0.18830907 -0.16081579 0.39252827
-0.18969655 -0.16531026 0.40349859
-0.18735297 -0.16667293 0.40682474
-0.18277568 -0.1660642 0.40533891
-0.17904435 -0.16621433 0.40570533
-0.17516996 -0.16623536 0.40575665
-0.17041621 -0.16540387 0.40372708
-0.16737585 -0.16623536 0.40575665
-0.15486555 -0.15747687 0.38437843
-0.14995833 -0.15621069 0.38128787
-0.14601652 -0.15591197 0.38055873
-0.14013153 -0.15346977 0.37459767
-0.13524896 -0.1520256 0.37107268
-0.13153182 -0.15184873 0.37064096
-0.12737955 -0.15114568 0.36892492
-0.12467385 -0.15216801 0.37142026
-0.12029294 -0.15114568 0.36892492
-0.12112647 -0.15681198 0.38275555
-0.11744408 -0.15680364 0.38273516
-0.11360899 -0.15658431 0.38219979
-0.11005984 -0.15675753 0.38262266
-0.10543133 -0.15535234 0.37919277
-0.10100999 -0.15416279 0.37628925
-0.097040579 -0.15360026 0.3749162
-0.092350632 -0.15180995 0.37054628
-0.088376306 -0.15109964 0.36881253
-0.084454127 -0.15042289 0.36716068
-0.080691501 -0.14998373 0.36608875
-0.077401407 -0.15042289 0.36716068
-0.073659375 -0.14998373 0.36608875
-0.066325992 -0.14182135 0.34616557
-0.062743425 -0.14124089 0.34474874
-0.059252352 -0.14081319 0.34370479
-0.055719506 -0.1402299 0.34228104
-0.052176557 -0.13954644 0.34061283
-0.048682112 -0.13890995 0.33905923
-0.045128416 -0.13800099 0.33684063
-0.041697476 -0.13735604 0.33526641
-0.038137008 -0.13614076 0.33230007
-0.034712702 -0.13523395 0.33008668
-0.031293247 -0.13416567 0.32747915
-0.02790897 -0.1330263 0.32469812
-0.024725337 -0.13267696 0.32384542
-0.021619571 -0.13270503 0.32391393
-0.018530831 -0.13286461 0.32430345
-0.015395701 -0.13268887 0.32387447
-0.012250574 -0.13231616 0.32296473
-0.0090916241 -0.13149077 0.32095009
-0.0059715882 -0.1306701 0.31894696
-0.0028974977 -0.13018493 0.31776276
0.00015499692 -0.1306701 0.31894696
0.0032063406 -0.13018493 0.31776276
0.0062406268 -0.12981814 0.31686744
0.009262803 -0.12952247 0.31614578
0.012276417 -0.12928262 0.31556034
0.015254438 -0.12883715 0.314473
0.01823581 -0.12856255 0.31380275
0.021243621 -0.12852579 0.31371301
0.024314201 -0.12883078 0.31445742
0.027459806 -0.12942193 0.31590039
0.03053507 -0.12959693 0.31632751
0.033182286 -0.12808794 0.31264427
0.034083202 -0.12064784 0.29448405
0.035554856 -0.1162134 0.28366023
0.037058357 -0.11250688 0.27461314
0.039128572 -0.11089908 0.27068874
0.042034458 -0.11171255 0.27267429
0.045812842 -0.11461338 0.27975482
0.050203569 -0.11863989 0.28958294
0.054682251 -0.12244061 0.29885995
0.057157371 -0.12159973 0.2968075
0.06092621 -0.12346034 0.30134895
0.062858678 -0.12159973 0.2968075
0.066714764 -0.12346034 0.30134895
0.070030943 -0.12420865 0.30317548
0.073406383 -0.12499812 0.30510247
0.076903902 -0.12592687 0.30736941
0.080568783 -0.12705088 0.31011295
0.084852785 -0.12903623 0.31495893
0.08830516 -0.1296638 0.31649071
0.09163329 -0.1300732 0.31749004
0.094867028 -0.13032658 0.3181085
0.097230949 -0.12940651 0.31586272
0.10063384 -0.12988305 0.31702587
0.1032983 -0.12940651 0.31586272
0.10672352 -0.12988305 0.31702587
0.11021203 -0.130408 0.31830722
0.11342904 -0.13059206 0.31875646
0.1163443 -0.13042817 0.31835642
0.11944866 -0.13047922 0.31848103
0.12267263 -0.13065512 0.31891039
0.12779966 -0.13279995 0.32414562
0.13098963 -0.13287781 0.32433566
0.1340261 -0.13279995 0.32414562
0.13721973 -0.13287781 0.32433566
0.140448 -0.13298503 0.32459736
0.14396159 -0.13335186 0.32549277
0.14708425 -0.13334869 0.32548502
0.15039136 -0.13350938 0.32587725
0.15174022 -0.13196056 0.32209677
0.15521441 -0.13228495 0.32288861
0.15861911 -0.1325386 0.32350773
0.16242872 -0.13311432 0.32491297
0.16540536 -0.13299859 0.32463047
0.16840255 -0.13290334 0.32439798
0.1748282 -0.13546814 0.33065829
0.17790151 -0.13539016 0.33046794
0.18123612 -0.1355103 0.33076116
0.18504976 -0.13597827 0.33190346
0.18924329 -0.13670485 0.3336769
0.19142522 -0.13597827 0.33190346
0.19565281 -0.13670485 0.3336769
0.20030095 -0.13769709 0.33609882
0.20692942 -0.13999765 0.34171417
0.21185727 -0.14109381 0.34438971
0.21349333 -0.13999765 0.34171417
0.21847259 -0.14109381 0.34438971
0.22340417 -0.14212692 0.34691143
0.23351285 -0.14637488 0.35728008
0.23571442 -0.1456151 0.35542557
0.24037577 -0.14637488 0.35728008
0.24668519 -0.14810273 0.36149752
0.2507695 -0.14846526 0.36238238
0.25362912 -0.14810273 0.36149752
0.25420666 -0.14643539 0.35742778
0.26225904 -0.14906101 0.36383653
0.26778847 -0.15020242 0.36662257
0.26924789 -0.14906101 0.36383653
0.28067541 -0.15339664 0.37441918
0.28916842 -0.1560391 0.38086903
0.29462084 -0.1569953 0.38320297
0.3029733 -0.15945417 0.38920474
0.31295541 -0.16270033 0.39712816
nan nan nan
nan nan nan
nan nan nan
nan nan nan
nan nan nan
nan nan nan
nan nan nan
nan nan nan
nan nan nan
nan nan nan
nan nan nan
nan nan nan
nan nan nan
nan nan nan
nan nan nan
nan nan nan
nan nan nan
nan nan nan
nan nan nan
nan nan nan
nan nan nan
nan nan nan
nan nan nan
nan nan nan
nan nan nan
nan nan nan
nan nan nan
nan nan nan
nan nan nan
-0.20359582 -0.1601547 0.4003481
-0.20140688 -0.16148256 0.40366742
-0.19629803 -0.16047551 0.40115005
-0.1930218 -0.16095631 0.40235189
-0.18859243 -0.16047551 0.40115005
-0.18526845 -0.16093487 0.40229833
-0.17932044 -0.15908587 0.39767629
-0.17615095 -0.15967503 0.39914903
-0.1734886 -0.16076036 0.40186208
-0.16688143 -0.15815645 0.39535296
-0.16427189 -0.15930817 0.39823198
-0.15928717 -0.15815645 0.39535296
-0.15388879 -0.15652776 0.3912816
-0.14991704 -0.15630491 0.39072454
-0.14401883 -0.15401052 0.38498911
-0.13934304 -0.15293689 0.38230529
-0.1355177 -0.15276381 0.38187265
-0.13127251 -0.15209469 0.3802
-0.13214092 -0.15748148 0.39366567
-0.12786695 -0.15687658 0.39215356
-0.12447535 -0.15735035 0.39333791
-0.12022671 -0.15673651 0.39180341
-0.11611205 -0.15626328 0.39062047
-0.1128547 -0.15695074 0.39233896
-0.1084526 -0.15603866 0.39005899
-0.1037195 -0.15456808 0.38638288
-0.099091046 -0.15315005 0.38283816
-0.094036281 -0.15093848 0.37730977
-0.089659102 -0.14968081 0.37416589
-0.082457222 -0.14340554 0.35847923
-0.078942426 -0.1432752 0.3581534
-0.075571269 -0.14340554 0.35847923
-0.072062731 -0.1432752 0.3581534
-0.06808684 -0.142156 0.35535571
-0.064448588 -0.14166082 0.35411787
-0.060884729 -0.14128312 0.3531737
-0.057212256 -0.14059393 0.35145089
-0.053576037 -0.13991301 0.34974876
-0.049802542 -0.1387585 0.34686273
-0.046037603 -0.137464 0.34362683
-0.042117465 -0.13547041 0.33864331
-0.038624309 -0.13463144 0.33654609
-0.035138208 -0.13366604 0.33413285
-0.031645171 -0.13247758 0.33116198
-0.028216144 -0.13132142 0.32827184
-0.025010727 -0.131046 0.32758337
-0.021867484 -0.13106395 0.32762825
-0.018753501 -0.13129281 0.32820031
-0.015572441 -0.13104965 0.32759249
-0.012395423 -0.13072599 0.32678342
-0.0091986861 -0.12990436 0.32472956
-0.0060425703 -0.12910773 0.32273814
-0.0029306654 -0.12857249 0.3214002
0.00015683931 -0.12910773 0.32273814
0.0032430438 -0.12857249 0.3214002
0.0063120965 -0.12821092 0.32049632
0.0093620466 -0.12782557 0.31953305
0.012404943 -0.12755795 0.31886408
0.015412755 -0.12710696 0.31773674
0.01841649 -0.12677699 0.31691188
0.02145086 -0.12672161 0.31677341
0.024623338 -0.1273945 0.31845549
0.027863638 -0.12823084 0.32054612
0.030728359 -0.12734425 0.3183299
0.03271383 -0.12330409 0.30823046
0.033903427 -0.11718362 0.29293075
0.033019982 -0.10538488 0.26343676
0.034231681 -0.10147647 0.25366667
0.036117051 -0.099951759 0.24985527
0.039107028 -0.10148351 0.25368428
0.043295428 -0.10576314 0.2643823
0.048372556 -0.11161931 0.27902132
0.053510655 -0.11699399 0.29245672
0.057995442 -0.12047542 0.30115947
0.061655514 -0.12199426 0.3049562
0.063780352 -0.12047542 0.30115947
0.065697663 -0.11871336 0.29675475
0.069081053 -0.11963685 0.29906324
0.07255853 -0.12064303 0.30157846
0.076138601 -0.12173602 0.30431065
0.079948105 -0.12310146 0.30772394
0.083777517 -0.1243991 0.31096771
0.088513702 -0.1269075 0.31723812
0.092149459 -0.12772372 0.31927848
0.095469244 -0.12806351 0.32012787
0.098918676 -0.12855059 0.32134545
0.10234922 -0.12898438 0.32242981
0.10436845 -0.12766634 0.31913501
0.10782377 -0.12813005 0.32029417
0.111329 -0.12862569 0.32153317
0.11459365 -0.12882414 0.32202926
0.11747069 -0.12858784 0.32143858
0.12027996 -0.12829138 0.32069749
0.12349101 -0.12842757 0.32103792
0.12671976 -0.12857507 0.32140663
0.12985308 -0.12862103 0.32152152
0.13534115 -0.13094307 0.32732609
0.13853848 -0.13099372 0.32745269
0.14179315 -0.13109513 0.32770619
0.14531337 -0.13143232 0.32854909
0.14883149 -0.13175333 0.32935148
0.15210748 -0.13185108 0.32959586
0.15526246 -0.13184208 0.32957336
0.15843861 -0.13185108 0.32959586
0.15993829 -0.1304919 0.32619822
0.16354673 -0.13087238 0.32714936
0.16694842 -0.13107622 0.32765892
0.16994131 -0.1309575 0.32736212
0.17331487 -0.1311311 0.32779607
0.17622954 -0.1309575 0.32736212
0.18306516 -0.1336526 0.33409923
0.18640336 -0.13374542 0.33433127
0.19043383 -0.1343234 0.33577609
0.19506043 -0.13529561 0.33820638
0.19688368 -0.1343234 0.33577609
0.20155697 -0.13529561 0.33820638
0.20890917 -0.13800672 0.34498346
0.21286553 -0.13842484 0.34602872
0.21385713 -0.13693182 0.34229648
0.21951233 -0.13842484 0.34602872
0.22596744 -0.14037026 0.35089177
0.22977427 -0.14063756 0.35155997
0.23270765 -0.14037026 0.35089177
0.24440086 -0.14531913 0.36326274
0.25062013 -0.14691973 0.36726385
0.25378069 -0.1467077 0.36673382
0.25767481 -0.14691973 0.36726385
0.26082522 -0.1467077 0.36673382
0.26766342 -0.14854799 0.37133411
0.27101704 -0.14843142 0.37104273
0.27204919 -0.14706296 0.3676219
0.27814433 -0.14843142 0.37104273
0.29165259 -0.15367123 0.384141
0.29800758 -0.15505816 0.38760796
0.29903147 -0.15367123 0.384141
0.31268337 -0.15872851 0.39678296
nan nan nan
nan nan nan
nan nan nan
nan nan nan
nan nan nan
nan nan nan
nan nan nan
nan nan nan
nan nan nan
nan nan nan
nan nan nan
nan nan nan
nan nan nan
nan nan nan
nan nan nan
nan nan nan
nan nan nan
nan nan nan
nan nan nan
nan nan nan
nan nan nan
nan nan nan
nan nan nan
nan nan nan
nan nan nan
nan nan nan
nan nan nan
nan nan nan
nan nan nan
-0.20685714 -0.15879343 0.40676111
nan nan nan
-0.19904375 -0.15879343 0.40676111
nan nan nan
-0.18571191 -0.15421104 0.39502296
-0.1811837 -0.15358861 0.39342856
-0.17909497 -0.15505166 0.39717627
-0.17904435 -0.15838127 0.40570533
-0.17516996 -0.15840133 0.40575665
-0.17125124 -0.15838127 0.40570533
-0.16737585 -0.15840133 0.40575665
-0.16266109 -0.157609 0.40372708
-0.15703814 -0.1558765 0.39928916
-0.15148857 -0.15413195 0.39482036
-0.14678885 -0.15318468 0.39239389
-0.14311455 -0.15328582 0.39265293
-0.1428269 -0.1571179 0.40246913
-0.13842189 -0.15650789 0.4009065
-0.13509595 -0.1571179 0.40246913
-0.13072096 -0.15650789 0.4009065
-0.12664686 -0.156232 0.4001998
-0.12166119 -0.15477914 0.39647818
-0.11687619 -0.15349594 0.39319119
-0.11357293 -0.15413803 0.39483592
-0.10951936 -0.15377098 0.39389572
-0.10484441 -0.15247403 0.39057347
-0.097040579 -0.14636165 0.3749162
-0.092350632 -0.1446557 0.37054628
-0.088376306 -0.14397888 0.36881253
-0.084454127 -0.14333403 0.36716068
-0.081291869 -0.14397888 0.36881253
-0.077401407 -0.14333403 0.36716068
-0.073659375 -0.14291556 0.36608875
-0.069598339 -0.14180517 0.36324444
-0.065953344 -0.14147002 0.3623859
-0.062303323 -0.14108613 0.36140254
-0.058692347 -0.14075057 0.36054298
-0.055129107 -0.14049461 0.3598873
-0.051084064 -0.13889438 0.35578823
-0.047059279 -0.13712379 0.3512527
-0.042624082 -0.13379148 0.34271675
-0.039004423 -0.13267553 0.33985814
-0.035509709 -0.13181955 0.3376655
-0.032013535 -0.13078555 0.33501685
-0.028559735 -0.12971292 0.33226922
-0.02529837 -0.12935439 0.33135083
-0.022307236 -0.13047324 0.33421683
-0.019087002 -0.13040297 0.33403683
-0.015830697 -0.1300081 0.33302537
-0.012607414 -0.12975311 0.33237219
-0.0093845092 -0.12933043 0.33128944
-0.0061816648 -0.12889236 0.33016729
-0.0029999714 -0.128437 0.32900083
0.00016044961 -0.12889236 0.33016729
0.0033197368 -0.128437 0.32900083
0.006465218 -0.1281521 0.32827106
0.009591287 -0.12779534 0.32735717
0.012717074 -0.12761188 0.32688725
0.01581323 -0.12726264 0.32599261
0.018876463 -0.12680763 0.3248271
0.021706527 -0.12513751 0.32054895
0.024929881 -0.12586796 0.32242006
0.028223218 -0.12675127 0.32468274
0.030624904 -0.12385282 0.31725815
0.031524114 -0.11595252 0.29702094
0.03158021 -0.10651959 0.27285782
0.030355113 -0.094541945 0.24217618
0.03154777 -0.091263466 0.2337781
0.033380598 -0.090149529 0.23092467
0.036472 -0.092361599 0.23659107
0.040974896 -0.097679026 0.25021204
0.046560753 -0.10484591 0.26857054
0.052219264 -0.1114154 0.28539878
0.057157371 -0.11586919 0.2968075
0.06092621 -0.11764211 0.30134895
0.064207308 -0.11835515 0.30317548
0.066714764 -0.11764211 0.30134895
0.070030943 -0.11835515 0.30317548
0.073406383 -0.11910743 0.30510247
0.075120568 -0.1172099 0.3002418
0.079069011 -0.11880987 0.30434024
0.083111294 -0.12043176 0.30849484
0.087495215 -0.12241998 0.31358781
0.092822783 -0.12555227 0.3216114
0.096380912 -0.12616654 0.32318488
0.10002462 -0.12685099 0.32493818
0.10342227 -0.12719142 0.32581022
0.10697009 -0.12769112 0.32709023
0.1096807 -0.12719142 0.32581022
0.11325309 -0.12769112 0.32709023
0.11556116 -0.1267768 0.32474813
0.11862614 -0.12671909 0.32460028
0.12153818 -0.12650512 0.32405221
0.12463389 -0.12648827 0.32400903
0.12779966 -0.12654158 0.32414562
0.13098963 -0.12661578 0.32433566
0.13421288 -0.12671794 0.32459736
0.13721973 -0.12661578 0.32433566
0.14323413 -0.12923171 0.33103654
0.14684778 -0.12961498 0.33201835
0.15055986 -0.13006702 0.33317626
0.15389141 -0.13017833 0.3334614
0.15691452 -0.1300295 0.33308017
0.16029681 -0.13017833 0.3334614
0.16331258 -0.1300295 0.33308017
0.16651936 -0.13003553 0.33309564
0.16847666 -0.12908404 0.33065829
0.17155361 -0.12900972 0.33046794
0.17488259 -0.12912419 0.33076116
0.17790151 -0.12900972 0.33046794
0.18123612 -0.12912419 0.33076116
0.18450443 -0.1291883 0.33092538
0.19233996 -0.132394 0.33913702
0.19671941 -0.13315362 0.34108281
0.19885437 -0.132394 0.33913702
0.2032712 -0.13315362 0.34108281
0.21042211 -0.13565171 0.34748188
0.21619877 -0.13719968 0.35144714
0.22201313 -0.13872364 0.35535082
0.22141413 -0.13625476 0.34902662
0.22691014 -0.13755436 0.35235563
0.23351285 -0.13947679 0.35728008
0.23829129 -0.14026968 0.35931116
0.24037577 -0.13947679 0.35728008
0.24519324 -0.14026968 0.35931116
0.25782216 -0.14544733 0.37257406
0.26256219 -0.14609371 0.37422982
0.26497886 -0.14544733 0.37257406
0.27103421 -0.14678885 0.37601048
0.27857497 -0.14888898 0.38139009
0.27825692 -0.14678885 0.37601048
0.2821213 -0.14692062 0.37634799
0.29549715 -0.15193969 0.38920474
0.30130985 -0.1529931 0.39190313
0.3029733 -0.15193969 0.38920474
0.31295541 -0.15503287 0.39712816
nan nan nan
nan nan nan
nan nan nan
nan nan nan
nan nan nan
nan nan nan
nan nan nan
nan nan nan
nan nan nan
nan nan nan
nan nan nan
nan nan nan
nan nan nan
nan nan nan
nan nan nan
nan nan nan
nan nan nan
nan nan nan
nan nan nan
nan nan nan
nan nan nan
nan nan nan
nan nan nan
nan nan nan
nan nan nan
nan nan nan
nan nan nan
nan nan nan
nan nan nan
nan nan nan
nan nan nan
nan nan nan
nan nan nan
nan nan nan
-0.18459195 -0.15260832 0.40082937
-0.17932044 -0.15140784 0.39767629
-0.17615095 -0.15196855 0.39914903
-0.1734886 -0.1530015 0.40186208
-0.16848376 -0.15196855 0.39914903
-0.16576934 -0.1530015 0.40186208
-0.16197021 -0.15305869 0.40201229
-0.15697379 -0.15195964 0.39912561
-0.15375906 -0.15257348 0.40073788
-0.14976768 -0.15242843 0.40035689
-0.14864403 -0.15527129 0.40782374
-0.1455494 -0.15615349 0.41014081
-0.14081022 -0.15527129 0.40782374
-0.1376711 -0.15615349 0.41014081
-0.13348643 -0.15586679 0.40938786
-0.12939499 -0.15567487 0.40888378
-0.12443314 -0.15439101 0.40551165
-0.11918902 -0.15266258 0.40097189
-0.11587767 -0.153377 0.40284833
-0.1084526 -0.1485077 0.39005899
-0.1037195 -0.14710808 0.38638288
-0.099091046 -0.14575849 0.38283816
-0.094036281 -0.14365368 0.37730977
-0.089659102 -0.1424567 0.37416589
-0.085562944 -0.14162491 0.3719812
-0.082471825 -0.1424567 0.37416589
-0.078417636 -0.14162491 0.3719812
-0.0745138 -0.14099824 0.37033525
-0.070578024 -0.14024527 0.36835754
-0.067092985 -0.14035577 0.36864775
-0.063505761 -0.14025287 0.36837751
-0.059947908 -0.14020655 0.36825582
-0.056383848 -0.14013898 0.36807838
-0.052111533 -0.13818428 0.3629443
-0.047201045 -0.1341358 0.35231084
-0.043060262 -0.13181828 0.34622383
-0.039429661 -0.13080534 0.34356335
-0.036033716 -0.13045697 0.34264833
-0.032617811 -0.12995903 0.34134048
-0.029205339 -0.12936504 0.33978033
-0.025865488 -0.12898371 0.33877876
-0.02252752 -0.12850338 0.3375172
-0.019249804 -0.12826307 0.33688602
-0.015965005 -0.12786892 0.33585075
-0.012713804 -0.12761238 0.33517694
-0.0094721634 -0.1273104 0.33438379
-0.0062481361 -0.12705673 0.33371755
-0.0030310517 -0.12655868 0.33240935
0.00016217491 -0.12705673 0.33371755
0.0033541301 -0.12655868 0.33240935
0.0065282644 -0.12620188 0.33147225
0.0096862009 -0.12586851 0.33059666
0.012842254 -0.12568131 0.33010498
0.015978102 -0.12540966 0.32939145
0.019096991 -0.12511669 0.32862198
0.02222427 -0.124954 0.32819465
0.025478018 -0.12545446 0.32950914
0.028335808 -0.12411006 0.32597801
0.028934471 -0.11412276 0.29974616
0.027471283 -0.098546639 0.25883508
0.026364064 -0.086726621 0.22778952
0.029206619 -0.088715501 0.23301338
0.029703436 -0.083803184 0.22011106
0.031610552 -0.083258197 0.21867962
0.034755617 -0.085838564 0.22545701
0.039361387 -0.091512285 0.24035919
0.045137085 -0.099126682 0.26035857
0.050999917 -0.10612299 0.27873456
0.056168523 -0.11104891 0.29167262
0.059997361 -0.11298385 0.29675475
0.06333641 -0.11386275 0.29906324
0.065697663 -0.11298385 0.29675475
0.069081053 -0.11386275 0.29906324
0.07255853 -0.11482038 0.30157846
0.076138601 -0.11586061 0.30431065
0.079948105 -0.11716016 0.30772394
0.083777517 -0.11839516 0.31096771
0.087103553 -0.11885828 0.3121841
0.093417212 -0.1232317 0.32367098
0.097295962 -0.12421484 0.32625324
0.10118487 -0.12514921 0.32870737
0.10463003 -0.12549478 0.32961503
0.10808536 -0.1258319 0.33050048
0.11096153 -0.12549478 0.32961503
0.11443388 -0.1258319 0.33050048
0.11785481 -0.12609583 0.33119369
0.12097809 -0.12603579 0.331036
0.12287452 -0.12473341 0.32761526
0.12592164 -0.124635 0.32735679
0.12905361 -0.12462331 0.32732609
0.13224851 -0.12467151 0.32745269
0.1354983 -0.12476803 0.32770619
0.13853848 -0.12467151 0.32745269
0.14179315 -0.12476803 0.32770619
0.14531337 -0.12508895 0.32854909
0.15205802 -0.12811288 0.33649155
0.15574884 -0.12849158 0.33748621
0.15873708 -0.12828703 0.33694893
0.161778 -0.12813237 0.33654273
0.16520947 -0.12828703 0.33694893
0.16824259 -0.12813237 0.33654273
0.17147659 -0.12813364 0.33654606
0.1751412 -0.12845068 0.33737877
0.17664753 -0.12720206 0.33409923
0.17965464 -0.12705941 0.33372456
0.18306516 -0.12720206 0.33409923
0.18621974 -0.12716502 0.33400193
0.19043383 -0.12784049 0.33577609
0.19506043 -0.12876578 0.33820638
0.20115134 -0.13061157 0.34305438
0.20572227 -0.1314268 0.34519562
0.21087344 -0.13258101 0.34822717
0.21952282 -0.13586421 0.35685059
0.22553466 -0.13743921 0.36098734
0.22637749 -0.13586421 0.35685059
0.23246878 -0.13743921 0.36098734
0.23742303 -0.13830553 0.36326274
0.24238266 -0.13914986 0.36548039
0.24440086 -0.13830553 0.36326274
0.24940309 -0.13914986 0.36548039
0.25378069 -0.13962707 0.36673382
0.25875071 -0.1404127 0.3687973
0.26756242 -0.14323369 0.3762067
0.2713601 -0.14333111 0.37646258
0.28008556 -0.14599457 0.38345823
0.28825876 -0.14830478 0.38952601
0.28745133 -0.14599457 0.38345823
0.30066511 -0.15077403 0.39601156
0.30212158 -0.14961179 0.39295891
0.30487096 -0.14911059 0.39164251
0.30966982 -0.14961179 0.39295891
nan nan nan
nan nan nan
nan nan nan
nan nan nan
nan nan nan
nan nan nan
nan nan nan
nan nan nan
nan nan nan
nan nan nan
nan nan nan
nan nan nan
nan nan nan
nan nan nan
nan nan nan
nan nan nan
nan nan nan
nan nan nan
nan nan nan
nan nan nan
nan nan nan
nan nan nan
nan nan nan
nan nan nan
nan nan nan
nan nan nan
nan nan nan
nan nan nan
nan nan nan
nan nan nan
nan nan nan
nan nan nan
nan nan nan
-0.18571191 -0.14658423 0.39502296
-0.1811837 -0.14599259 0.39342856
-0.17909497 -0.14738327 0.39717627
-0.17926916 -0.15073727 0.40621477
-0.17146568 -0.14738327 0.39717627
-0.17146628 -0.15073727 0.40621477
-0.17014296 -0.1530565 0.41246477
-0.16792202 -0.15465955 0.41678476
-0.16106898 -0.15197048 0.40953809
-0.1563585 -0.15121892 0.40751275
-0.15205559 -0.15083304 0.40647289
-0.15109369 -0.15382832 0.4145447
-0.14794916 -0.15470345 0.41690305
-0.14313078 -0.15382832 0.4145447
-0.13994096 -0.15470345 0.41690305
-0.13607502 -0.15486068 0.41732678
-0.13236977 -0.1552159 0.41828403
-0.12166119 -0.14712423 0.39647818
-0.11738896 -0.14654462 0.39491621
-0.11357293 -0.14651482 0.39483592
-0.10951936 -0.14616594 0.39389572
-0.10484441 -0.14493312 0.39057347
-0.099887155 -0.14320408 0.38591397
-0.095000044 -0.14144622 0.38117677
-0.090641335 -0.1403657 0.37826496
-0.087678105 -0.14144622 0.38117677
-0.08337532 -0.1403657 0.37826496
-0.079513475 -0.13996288 0.37717941
-0.075558566 -0.13934998 0.37552774
-0.071620554 -0.13870837 0.37379867
-0.068016112 -0.13867915 0.37371993
-0.065784983 -0.14160275 0.38159859
-0.06198401 -0.14129286 0.38076347
-0.057921719 -0.14031106 0.37811771
-0.053307001 -0.13777021 0.37127048
-0.047609791 -0.13186683 0.35536173
-0.04347175 -0.12970369 0.34953237
-0.039891016 -0.12898043 0.34758329
-0.036492057 -0.12876649 0.34700677
-0.033005353 -0.12816881 0.34539607
-0.029575458 -0.12768279 0.34408635
-0.026160138 -0.12714534 0.34263802
-0.022799456 -0.126757 0.34159148
-0.019488411 -0.12656045 0.3410618
-0.016192328 -0.12640128 0.34063286
-0.012897524 -0.126174 0.34002042
-0.0096117938 -0.12591149 0.33931297
-0.0063402839 -0.12566149 0.33863926
-0.003072863 -0.12505125 0.33699471
0.00016456668 -0.12566149 0.33863926
0.003400398 -0.12505125 0.33699471
0.0066103493 -0.12454856 0.33564007
0.0098063005 -0.12419814 0.33469573
0.012996024 -0.12396133 0.33405757
0.016159877 -0.12362039 0.33313879
0.019317616 -0.12335312 0.33241853
0.022525147 -0.12343449 0.33263782
0.025768373 -0.12366697 0.33326432
0.028322827 -0.12090778 0.32582867
0.028393986 -0.1091514 0.29414698
0.026718238 -0.093415067 0.25173986
0.025651788 -0.082243942 0.22163534
0.027198846 -0.080522075 0.21699515
0.028467238 -0.078279026 0.21095046
0.030520611 -0.078349158 0.21113947
0.033530634 -0.080713354 0.21751064
0.038435236 -0.087093309 0.23470369
0.044095725 -0.094384298 0.25435182
0.049916696 -0.10123532 0.27281433
0.055152979 -0.10627632 0.28639907
0.059031498 -0.10834634 0.29197747
0.062414672 -0.10936068 0.29471096
0.065830529 -0.11034179 0.29735491
0.068075716 -0.10936068 0.29471096
0.07154236 -0.11034179 0.29735491
0.075120568 -0.11141305 0.3002418
0.079069011 -0.11293389 0.30434024
0.083111294 -0.11447557 0.30849484
0.087495215 -0.11636546 0.31358781
0.091803744 -0.11803265 0.31808063
0.098038353 -0.12198908 0.32874262
0.10223607 -0.12324318 0.33212227
0.1058061 -0.12368763 0.33331999
0.10920765 -0.12391479 0.33393216
0.11256798 -0.12408357 0.334387
0.11562207 -0.12391479 0.33393216
0.11899114 -0.12408357 0.334387
0.12201302 -0.12389094 0.33386791
0.1251836 -0.12385531 0.33377185
0.12844647 -0.12391048 0.33392054
0.13041072 -0.12274072 0.3307682
0.1335993 -0.12275151 0.33079728
0.13687532 -0.12284029 0.33103654
0.13995351 -0.12275151 0.33079728
0.14323413 -0.12284029 0.33103654
0.14684778 -0.12320462 0.33201835
0.15034653 -0.12345912 0.33270419
0.15389141 -0.12374011 0.3334614
0.16084312 -0.12669313 0.34141937
0.16385679 -0.12648821 0.34086713
0.16740137 -0.12669313 0.34141937
0.17040443 -0.12648821 0.34086713
0.173536 -0.1263846 0.34058794
0.17698663 -0.12651291 0.34093371
0.18083926 -0.12691867 0.34202719
0.18448101 -0.12716462 0.34268996
0.1853355 -0.12551433 0.33824265
0.18862939 -0.12554446 0.33832386
0.19233996 -0.12584619 0.33913702
0.19671941 -0.12656824 0.34108281
0.20148388 -0.12751029 0.34362149
0.2032712 -0.12656824 0.34108281
0.21467419 -0.13154839 0.35450357
0.22329834 -0.13469678 0.36298802
0.22911219 -0.13607921 0.36671346
0.23027092 -0.13469678 0.36298802
0.23615631 -0.13607921 0.36671346
0.24460118 -0.13887416 0.37424546
0.25009426 -0.13993655 0.37710845
0.24833196 -0.13696691 0.3691057
0.25358358 -0.13789491 0.37160653
0.25782216 -0.13825394 0.37257406
0.26256219 -0.13886836 0.37422982
0.26497886 -0.13825394 0.37257406
0.26975071 -0.13886836 0.37422982
0.28372228 -0.14414039 0.38843718
0.29262885 -0.14673577 0.39543137
0.29118371 -0.14414039 0.38843718
0.30022463 -0.14673577 0.39543137
0.31092313 -0.15006636 0.40440679
0.3129628 -0.14918713 0.40203741
0.31367901 -0.14770615 0.39804637
nan nan nan
nan nan nan
nan nan nan
nan nan nan
nan nan nan
nan nan nan
nan nan nan
nan nan nan
nan nan nan
nan nan nan
nan nan nan
nan nan nan
nan nan nan
nan nan nan
nan nan nan
nan nan nan
nan nan nan
nan nan nan
nan nan nan
nan nan nan
nan nan nan
nan nan nan
nan nan nan
nan nan nan
nan nan nan
nan nan nan
nan nan nan
nan nan nan
nan nan nan
nan nan nan
nan nan nan
nan nan nan
nan nan nan
nan nan nan
nan nan nan
-0.18454354 -0.14791624 0.40925947
-0.18366107 -0.15041265 0.4161666
-0.17668214 -0.14791624 0.40925947
-0.18149121 -0.15539953 0.42996448
-0.17816725 -0.15610538 0.43191746
-0.17177679 -0.15409404 0.42635238
-0.16385634 -0.15057845 0.41662535
-0.15924945 -0.15000811 0.41504732
-0.15478559 -0.14954668 0.41377065
-0.15294167 -0.15165894 0.41961488
-0.14683755 -0.14954668 0.41377065
-0.14488138 -0.15165894 0.41961488
-0.14092058 -0.15173361 0.41982147
-0.13348643 -0.14796264 0.40938786
-0.12939499 -0.14778046 0.40888378
-0.12443314 -0.1465617 0.40551165
-0.1197415 -0.14559267 0.40283054
-0.11587767 -0.14559911 0.40284833
-0.11138503 -0.14478858 0.40060574
-0.10682597 -0.14383064 0.3979553
-0.10179758 -0.14214624 0.39329487
-0.096891068 -0.14050879 0.38876429
-0.092284679 -0.13919275 0.38512298
-0.089423373 -0.14050879 0.38876429
-0.084886931 -0.13919275 0.38512298
-0.081058435 -0.13897051 0.3845081
-0.078046538 -0.14019389 0.38789302
-0.074276179 -0.14010924 0.3876588
-0.07071881 -0.1404386 0.3885701
-0.067297086 -0.14108908 0.39036983
-0.063649669 -0.14131519 0.39099547
-0.059410829 -0.14017427 0.38783872
-0.053127967 -0.13373542 0.37002352
-0.048312556 -0.13033214 0.36060721
-0.044095971 -0.12814341 0.35455137
-0.040470034 -0.12744844 0.35262847
-0.037013058 -0.12720719 0.35196099
-0.033445965 -0.12650098 0.350007
-0.029956801 -0.1259646 0.34852296
-0.026503004 -0.12546071 0.34712878
-0.023116464 -0.125176 0.34634101
-0.019760022 -0.12498596 0.34581521
-0.016424345 -0.124877 0.34551373
-0.013083667 -0.12466519 0.34492773
-0.0097393049 -0.12426279 0.34381434
-0.0064213471 -0.12395723 0.34296891
-0.0031136905 -0.12341629 0.34147221
0.00016667074 -0.12395723 0.34296891
0.0034455776 -0.12341629 0.34147221
0.0067058061 -0.12306017 0.34048688
0.009957361 -0.12283054 0.33985153
0.013195757 -0.12259203 0.33919162
0.016373612 -0.12199688 0.33754495
0.019566614 -0.12169269 0.33670327
0.022863789 -0.12203076 0.33763868
0.02622192 -0.12256979 0.33913007
0.028685292 -0.11926942 0.32999849
0.028689545 -0.10741845 0.29720885
0.027050544 -0.092116483 0.25487086
0.025895115 -0.080864213 0.22373773
0.027237279 -0.078538105 0.21730177
0.028366702 -0.075973317 0.21020545
0.03045336 -0.076142751 0.21067424
0.033284515 -0.078036562 0.2159141
0.037480257 -0.082719907 0.22887214
0.042701054 -0.08902134 0.24630713
0.048347354 -0.095501713 0.26423725
0.05360844 -0.10061273 0.27837858
0.058331519 -0.10427638 0.28851527
0.061708074 -0.10530978 0.29137453
0.065117992 -0.10630799 0.2941364
0.067305028 -0.10530978 0.29137453
0.070767999 -0.10630799 0.2941364
0.074253082 -0.10726151 0.29677463
0.078233734 -0.10883392 0.30112523
0.08237578 -0.11051074 0.3057647
0.087103553 -0.11283086 0.3121841
0.091899082 -0.11508141 0.31841099
0.097295962 -0.11791579 0.32625324
0.10118487 -0.11880277 0.32870737
0.10463003 -0.11913082 0.32961503
0.11030957 -0.12190893 0.33730161
0.11373293 -0.12210625 0.33784753
0.11678872 -0.12190893 0.33730161
0.12022257 -0.12210625 0.33784753
0.12332991 -0.12197027 0.33747134
0.12664467 -0.12204116 0.33766744
0.12992127 -0.12207265 0.33775458
0.13307197 -0.12198719 0.33751813
0.13641313 -0.12207622 0.33776447
0.13835591 -0.12093879 0.33461738
0.14202084 -0.12132418 0.33568367
0.1447835 -0.12093879 0.33461738
0.14846891 -0.12132418 0.33568367
0.15205802 -0.12161616 0.33649155
0.15574884 -0.12197565 0.33748621
0.15873708 -0.12178147 0.33694893
0.161778 -0.12163465 0.33654273
0.16913089 -0.12467209 0.34494677
0.17258674 -0.12477536 0.34523252
0.17575692 -0.12467209 0.34494677
0.17896365 -0.12459809 0.34474206
0.18271944 -0.12490212 0.34558326
0.18676768 -0.12539165 0.34693769
0.1893577 -0.12490212 0.34558326
0.19106366 -0.12385641 0.34268996
0.1942692 -0.12380175 0.34253868
0.19909148 -0.12476202 0.34519562
0.20418443 -0.1258577 0.34822717
0.20572227 -0.12476202 0.34519562
0.21087344 -0.1258577 0.34822717
0.21952282 -0.12897441 0.35685059
0.23395309 -0.1353395 0.37446174
0.23955435 -0.13648169 0.37762198
0.24114604 -0.1353395 0.37446174
0.24680799 -0.13648169 0.37762198
0.25373802 -0.13828185 0.38260272
0.25801966 -0.13860792 0.3835049
0.26108736 -0.13828185 0.38260272
0.26211676 -0.13690028 0.37878013
0.26412871 -0.13606265 0.37646258
0.26857746 -0.13648599 0.37763387
0.2713601 -0.13606265 0.37646258
0.28008556 -0.13859105 0.38345823
0.28825876 -0.1407841 0.38952601
0.29721972 -0.14330076 0.3964892
0.30619723 -0.14576162 0.40329799
0.31603178 -0.14856389 0.41105139
0.32104567 -0.14905882 0.41242081
0.32392755 -0.14856389 0.41105139
nan nan nan
nan nan nan
nan nan nan
nan nan nan
nan nan nan
nan nan nan
nan nan nan
nan nan nan
nan nan nan
nan nan nan
nan nan nan
nan nan nan
nan nan nan
nan nan nan
nan nan nan
nan nan nan
nan nan nan
nan nan nan
nan nan nan
nan nan nan
nan nan nan
nan nan nan
nan nan nan
nan nan nan
nan nan nan
nan nan nan
nan nan nan
nan nan nan
nan nan nan
nan nan nan
nan nan nan
nan nan nan
nan nan nan
nan nan nan
nan nan nan
-0.19218342 -0.14992541 0.42620236
nan nan nan
-0.18828407 -0.15341896 0.43613368
-0.18520743 -0.1543458 0.43876848
-0.18116944 -0.15449597 0.43919539
-0.17135593 -0.14961074 0.42530781
-0.16607597 -0.14854178 0.42226902
-0.16207492 -0.14859182 0.42241126
-0.15848978 -0.14903554 0.42367268
-0.15568084 -0.15025176 0.4271301
-0.15035155 -0.14903554 0.42367268
-0.14313078 -0.1458246 0.4145447
-0.13994096 -0.14665419 0.41690305
-0.13607502 -0.14680324 0.41732678
-0.13236977 -0.14713998 0.41828403
-0.12600417 -0.144448 0.41063139
-0.12233866 -0.14477742 0.41156784
-0.1182488 -0.14460987 0.41109154
-0.11331505 -0.1433631 0.40754727
-0.10877509 -0.14254314 0.40521631
-0.1034717 -0.14062476 0.39976281
-0.098448664 -0.13895425 0.39501396
-0.095792726 -0.14062476 0.39976281
-0.092531398 -0.14150892 0.40227628
-0.08783979 -0.14018752 0.39851981
-0.083747707 -0.13974608 0.39726493
-0.079384483 -0.13878846 0.39454263
-0.075412072 -0.13845237 0.3935872
-0.071623355 -0.13843583 0.3935402
-0.068207338 -0.13917796 0.39564991
-0.064487703 -0.13935158 0.39614347
-0.060205229 -0.13825448 0.39302465
-0.053994425 -0.13228618 0.37605819
-0.049120396 -0.12897208 0.36663699
-0.044795852 -0.12670025 0.36017874
-0.041010112 -0.12569967 0.35733435
-0.037396763 -0.125093 0.35560969
-0.033773255 -0.12432696 0.35343203
-0.030224403 -0.12369528 0.35163629
-0.026779503 -0.12338361 0.3507503
-0.023394538 -0.12329811 0.35050726
-0.020017071 -0.12323003 0.35031375
-0.016632184 -0.12307957 0.349886
-0.013243326 -0.12281604 0.34913686
-0.0098498119 -0.12231603 0.34771544
-0.0064972751 -0.12207291 0.34702429
-0.0031582681 -0.12183955 0.34636092
0.00016864152 -0.12207291 0.34702429
0.0034949065 -0.12183955 0.34636092
0.0068151127 -0.12172559 0.34603694
0.010124739 -0.1215593 0.34556425
0.013403971 -0.1212003 0.34454367
0.016601324 -0.12038969 0.34223929
0.019814225 -0.11994114 0.34096417
0.023160944 -0.12031496 0.34202689
0.026568878 -0.12087443 0.34361732
0.029069357 -0.11763797 0.33441681
0.028981552 -0.10561342 0.30023387
0.027181776 -0.090091005 0.25610733
0.025897119 -0.078710422 0.22375503
0.027199592 -0.076334588 0.21700111
0.02830106 -0.073772967 0.20971903
0.030441262 -0.074079543 0.21059054
0.033069488 -0.075461537 0.21451923
0.037068982 -0.079627007 0.22636069
0.042072464 -0.085368119 0.24268131
0.047613777 -0.09154053 0.26022798
0.052858777 -0.096555978 0.27448574
0.057212729 -0.099544577 0.2829816
0.060522828 -0.10052827 0.28577802
0.0637291 -0.10126164 0.28786281
0.06784001 -0.10331168 0.29369056
0.070154205 -0.10257109 0.29158527
0.073481455 -0.10331168 0.29369056
0.077359334 -0.10474304 0.29775962
0.081535473 -0.10646181 0.30264565
0.086512402 -0.10907184 0.31006536
0.091774799 -0.1118561 0.31798035
0.096848384 -0.11423832 0.32475242
0.10223607 -0.11683081 0.33212227
0.1058061 -0.11725213 0.33331999
0.10920765 -0.11746749 0.33393216
0.11256798 -0.11762748 0.334387
0.11798743 -0.11987059 0.34076363
0.12136242 -0.11997158 0.34105071
0.12453309 -0.11987059 0.34076363
0.12791456 -0.11997249 0.34105331
0.13128506 -0.12005927 0.34129998
0.13421549 -0.11974918 0.34041849
0.13760477 -0.1198535 0.34071505
0.14091402 -0.11988488 0.34080425
0.14462744 -0.12025087 0.34184471
0.14612842 -0.11880192 0.33772567
0.14983959 -0.11917377 0.33878273
0.15349163 -0.11948376 0.33966398
0.15727903 -0.11988404 0.34080186
0.16084312 -0.12010127 0.34141937
0.16385679 -0.119907 0.34086713
0.16699372 -0.11980879 0.34058794
0.17040443 -0.119907 0.34086713
0.17761311 -0.12262361 0.34858984
0.18121952 -0.12279873 0.34908763
0.1848368 -0.12297471 0.34958789
0.18908748 -0.12355829 0.35124689
0.19286707 -0.12381899 0.35198799
0.19583452 -0.12355829 0.35124689
0.19962832 -0.12381899 0.35198799
0.20234151 -0.12341189 0.3508307
